# .PCD v0.7 - Point Cloud Data file format
VERSION 0.7
FIELDS x y z
SIZE 4 4 4
TYPE F F F
COUNT 1 1 1
WIDTH 1584
HEIGHT 1
VIEWPOINT 0 0 0 1 0 0 0
POINTS 1584
DATA ascii
23.728165 6.3234577 16.347418
23.964758 5.5578156 16.377037
24.176611 4.7834625 16.406654
24.404472 4.0079436 16.463982
25.071297 3.2834013 16.832777
35.457661 3.4740644 23.717611
25.407961 1.6566726 16.950294
35.369015 1.1518582 23.558054
35.417908 0 23.578117
36.229797 0 25.573784
34.819672 1.1339678 24.591438
34.66592 2.2603183 24.521839
34.651081 3.3950374 24.576525
34.713554 4.546176 24.71274
24.528431 4.0283012 17.545996
34.229511 6.7724795 24.630215
23.574932 5.4674087 17.082663
23.408978 6.2383957 17.100559
23.081589 6.9632764 17.018036
22.842707 7.7108836 17.018036
22.566423 8.4453821 17.008093
22.276968 9.1743622 17.006104
21.93058 9.8784103 16.978264
21.594893 10.585768 16.976276
21.267498 11.298263 16.999144
20.916574 12.000648 17.022013
20.486116 12.657346 16.99815
20.071484 13.322907 17.00511
19.621454 13.965083 17.000137
18.287073 13.933892 16.22858
17.795448 14.498614 16.202728
18.202324 15.84328 17.033943
12.965737 12.049163 12.494078
12.504668 12.403307 12.432432
12.061434 12.768942 12.398627
11.625418 13.138947 12.383713
11.165531 13.47893 12.354878
10.713979 13.826315 12.346925
10.272304 14.187119 12.363828
7.271605 10.763792 9.1692171
6.8948917 10.959009 9.139389
6.5103564 11.136284 9.1055832
6.1383862 11.331146 9.0966349
5.7600069 11.512347 9.0866919
5.3792877 11.687335 9.0817204
4.9779687 11.813401 9.0489101
4.5877829 11.961282 9.042944
4.1932487 12.096289 9.0369787
3.7960439 12.222332 9.0339956
3.3939576 12.331267 9.0280294
2.9897931 12.431097 9.0250473
2.6032209 12.617013 9.0936518
2.1724756 12.586793 9.016099
1.7664859 12.685715 9.0409555
1.3486184 12.698672 9.0141096
0.93704098 12.769556 9.0379725
0.51952505 12.759512 9.0141096
0.10393254 12.769662 9.0141096
-0.31259543 12.800074 9.0379725
-0.72730273 12.752178 9.016099
-1.2838007 14.301444 10.135653
-1.5559933 12.68203 9.0190811
-1.9744725 12.666415 9.0489101
-2.3731306 12.529005 9.0011845
-2.7888987 12.486362 9.0310125
-3.1959569 12.397153 9.0369787
-3.5989738 12.290612 9.0399609
-4.0001988 12.176322 9.0469208
-4.3968287 12.046281 9.0518923
-4.7897549 11.904623 9.0578585
-5.1798201 11.754011 9.0668068
-5.5797834 11.621084 9.099618
-6.010397 11.539495 9.1841316
-6.3551784 11.288648 9.1443605
-6.745553 11.119162 9.1801538
-7.1308322 10.934999 9.2149534
-10.056975 14.37668 12.384707
-9.6319895 12.856914 11.339723
-9.8137264 12.24749 11.078228
-10.118316 11.81778 10.981783
-10.477659 11.46034 10.960903
-12.400485 12.707019 12.532854
-12.793298 12.282997 12.518934
-15.28822 13.750563 14.514447
-15.687832 13.212078 14.477659
-16.099609 12.686598 14.468711
-16.499487 12.152498 14.464733
-16.845676 11.581078 14.429934
-15.139241 9.6977739 12.690944
-17.545349 10.449667 14.415019
-15.777601 8.7139854 12.722761
-16.040333 8.1894083 12.712818
-16.258879 7.6443834 12.681995
-16.421473 7.077662 12.622339
-16.63397 6.5357928 12.615379
-8.1614952 2.9038491 6.1148
-16.972986 5.4233675 12.577597
-11.011938 3.1274686 8.0804844
-11.070998 2.758183 8.0536394
-11.152155 2.3957732 8.05165
-11.224227 2.0315053 8.05165
-11.320635 1.6704307 8.0775013
-11.332623 1.2968993 8.05165
-11.332331 0.92436224 8.0257988
-11.356413 0.55500948 8.0257988
-7.0038848 0.11401708 4.9445367
-11.102223 0.18073443 8.3013697
-11.124939 0.54369688 8.327179
-11.168786 0.91102219 8.3777657
-11.167513 1.2780042 8.4035749
-11.01754 1.625707 8.3261461
-11.026726 1.995759 8.3777657
-10.92487 2.3469465 8.3540211
-10.878867 2.7103164 8.3818951
-10.788868 3.064115 8.3849916
-10.713669 3.4233317 8.4087372
-10.506796 3.7383041 8.3375025
-10.44638 4.1045752 8.3911867
-10.280612 4.4309478 8.3695059
-10.167179 4.7802687 8.3994455
-15.693099 8.0121279 13.173171
-17.591328 9.7157097 15.024229
-17.251528 10.274673 15.011841
-16.859114 10.799476 14.968481
-16.507765 11.348769 14.97674
-16.167423 11.907921 15.011841
-15.773427 12.429564 15.013906
-15.422808 12.988878 15.074816
-14.977479 13.471074 15.060363
-12.567757 12.066453 13.025541
-12.132655 12.432569 12.987343
-10.302479 11.26873 11.415028
-10.323592 12.057535 11.86721
-9.8384428 12.278336 11.76294
-9.4915304 12.669428 11.835207
-9.1121101 13.025973 11.884761
-8.3084126 12.740798 11.371668
-6.6788692 11.009242 9.6269455
-6.2749834 11.146198 9.5629377
-5.8814244 11.291878 9.5185452
-5.4952216 11.444966 9.491704
-5.0858121 11.540689 9.4287281
-4.7043796 11.692428 9.422534
-4.3411884 11.89384 9.4658937
-3.9379563 11.98686 9.4328575
-3.5526872 12.132542 9.4514408
-3.1452088 12.200299 9.4194374
-2.7376978 12.257128 9.3894978
-2.3365114 12.335673 9.3864012
-1.9273714 12.364258 9.3554296
-1.5277661 12.451965 9.3791742
-1.1181929 12.456586 9.3502674
-0.71387321 12.516712 9.3729801
-0.30520427 12.497423 9.346138
0.10255294 12.600156 9.4204693
0.51262879 12.590141 9.4204693
0.91720957 12.499303 9.3698826
1.3308626 12.531483 9.4215021
1.7243398 12.38305 9.3471708
2.1441047 12.422419 9.4245987
2.5411749 12.316294 9.4018869
2.9339378 12.198859 9.3802061
3.3485062 12.166128 9.4338903
3.7443728 12.055964 9.4380198
4.1149054 11.870291 9.3925953
4.5010762 11.735219 9.3967247
4.882813 11.587583 9.4008541
5.2764497 11.463904 9.4349232
5.6362953 11.265089 9.4173727
6.0216889 11.115728 9.4514408
6.3865833 10.924564 9.4607325
6.7630563 10.749465 9.4948006
7.1163206 10.533933 9.5040922
7.4837699 10.335864 9.540225
10.477186 13.520735 12.788094
10.939918 13.206572 12.82113
11.366735 12.846586 12.824227
11.816792 12.50995 12.865522
12.226548 12.127441 12.874814
12.653252 11.758766 12.914044
13.063663 11.370595 12.948112
17.418934 14.191853 16.797859
17.902397 13.640786 16.826765
18.338037 13.051643 16.827797
18.814123 12.488306 16.882513
20.095228 12.415836 17.659895
20.485119 11.753104 17.656799
20.865358 11.084629 17.664026
21.210144 10.397164 17.659895
21.538588 9.7018404 17.660929
21.855734 9.000885 17.671251
22.164288 8.2948847 17.692932
22.430389 7.5717001 17.699127
22.668926 6.8387842 17.702223
22.923546 6.1090298 17.736292
23.118317 5.3615122 17.742487
23.323931 4.6147556 17.775522
24.222128 3.9779973 18.351591
35.34024 4.6282487 26.646765
33.982418 3.3295231 25.527666
33.984596 2.215894 25.461594
34.041473 1.1086243 25.463657
34.175518 0 25.550377
33.435116 0 26.450808
34.776958 1.1325767 27.526939
33.290054 2.170608 26.391973
33.207146 3.2535636 26.396254
33.15873 4.3425522 26.456156
35.374855 5.8096085 28.360247
32.902752 6.509973 26.534246
22.724524 5.2701855 18.454699
22.462545 5.9861755 18.390516
22.88365 6.9035621 18.909327
22.010086 7.429821 18.37768
22.37965 8.3754826 18.903978
21.441269 8.8301954 18.344519
21.105503 9.5067616 18.312428
20.78245 10.18751 18.310287
20.448196 10.863013 18.317776
20.102541 11.533605 18.33489
18.787016 11.607557 17.470562
18.426277 12.230864 17.496235
18.013998 12.821015 17.491957
17.53228 13.358775 17.437401
17.114376 13.943718 17.464144
12.782834 11.126163 13.40672
12.404994 11.528059 13.397093
11.993426 11.896209 13.363932
11.570142 12.248832 13.329701
11.133956 12.583501 13.292261
10.68914 12.903835 13.255891
10.251866 13.229961 13.240915
9.815011 13.555551 13.239845
7.0175428 10.387716 9.9173145
6.6454654 10.562562 9.8723869
6.2776637 10.738253 9.8402958
5.9370489 10.959487 9.8606195
5.543294 11.07921 9.8007164
5.1746445 11.242717 9.7910881
4.7891545 11.365318 9.7568579
4.414259 11.508869 9.7515087
4.0342102 11.63751 9.7440214
3.6520731 11.758781 9.7408123
3.2831821 11.928787 9.787879
2.8843117 11.992521 9.7579279
2.4932511 12.084023 9.761137
2.09653 12.146782 9.7515087
1.6916538 12.14832 9.703372
1.294192 12.18619 9.6948147
0.89744413 12.229949 9.7012329
0.49850342 12.243222 9.6937447
0.099727102 12.252961 9.6937447
-0.29915488 12.249715 9.6937447
-0.69795084 12.237536 9.6969538
-1.096029 12.209681 9.6980238
-1.4933627 12.171562 9.7012329
-1.8895841 12.121848 9.7055111
-2.2899384 12.08979 9.7343941
-2.6763482 11.982455 9.7129993
-3.1000595 12.025165 9.8242493
-3.4822316 11.891933 9.8028555
-3.8484728 11.714479 9.7547178
-4.2425714 11.623652 9.788949
-4.6216969 11.486926 9.7953672
-4.9969602 11.339066 9.8028555
-5.3680763 11.180161 9.8114128
-5.7516289 11.04268 9.8499231
-6.1146493 10.861399 9.8606195
-6.5077257 10.727134 9.9258728
-6.8970184 10.57645 9.988986
-8.521143 12.181171 11.760431
-10.058676 13.426461 13.271936
-10.540257 13.154198 13.33505
-10.949645 12.788739 13.319004
-10.468711 11.450553 12.273893
-11.816147 12.108236 13.384256
-14.224024 13.656655 15.599633
-14.676086 13.199996 15.615679
-15.059697 12.683072 15.576099
-15.430561 12.159384 15.541869
-15.860628 11.681955 15.583588
-16.165611 11.113546 15.519404
-14.572923 9.3350067 13.691264
-16.832384 10.02504 15.499081
-17.146225 9.4698792 15.495872
-17.349037 8.8575697 15.410295
-15.596868 7.3331275 13.634569
-15.84592 6.8295979 13.650615
-15.989347 6.2825089 13.590712
-10.312519 3.6691809 8.6593313
-10.399437 3.3229253 8.6368675
-10.525499 2.9893165 8.6561222
-10.619847 2.6457853 8.6582623
-10.725457 2.3041074 8.678586
-10.76683 1.9487199 8.6561222
-10.848634 1.6007839 8.6753769
-10.826477 1.2389762 8.620822
-10.863764 0.88614196 8.622961
-10.930069 0.53417325 8.6571922
-10.9322 0.17796659 8.649704
-10.650897 0.17338723 8.9108334
-10.640931 0.52004248 8.9119396
-10.614411 0.86580259 8.9086208
-10.584547 1.2112899 8.9119396
-10.569602 1.559611 8.9373837
-10.513236 1.9028211 8.9373837
-10.412113 2.2367928 8.9086208
-10.335073 2.5748374 8.9097271
-10.24833 2.9105983 8.9119396
-10.189731 3.2559183 8.9484463
-10.107009 3.5960608 8.9738894
-10.021528 3.9376431 9.0070772
-15.496379 6.6789455 14.115734
-15.315051 7.2006269 14.156665
-17.013605 8.6863136 15.979763
-16.793627 9.2751379 16.048349
-16.461237 9.8039913 16.027332
-16.143421 10.341023 16.037289
-15.832053 10.884231 16.071581
-15.470451 11.394575 16.072687
-15.109023 11.90601 16.091494
-14.723596 12.400012 16.102556
-14.319061 12.87888 16.1103
-11.978662 11.500855 13.891166
-11.563792 11.849644 13.850234
-10.246618 11.20763 12.703054
-9.8875656 11.548274 12.717435
-10.287888 12.839241 13.76284
-8.7251196 11.646412 12.173161
-8.338378 11.919906 12.168736
-7.9596963 12.206048 12.189754
-7.5746388 12.485801 12.216305
-6.0399222 10.728661 10.299175
-5.649632 10.846854 10.230588
-5.2746882 10.98566 10.194082
-4.8828502 11.080129 10.128814
-4.5521879 11.314165 10.201826
-4.1787834 11.448889 10.195189
-3.7700667 11.475816 10.104476
-3.3833866 11.554375 10.071288
-3.0121059 11.683992 10.093413
-2.621264 11.735834 10.059119
-2.2371399 11.811038 10.055801
-1.865564 11.967758 10.132133
-1.4666551 11.953884 10.074607
-1.076429 11.991338 10.071288
-0.68170482 11.952686 10.01487
-0.29306313 12.000271 10.04142
0.097933128 12.032544 10.065757
0.49082714 12.054693 10.092307
0.88294268 12.03233 10.092307
1.2741225 11.997214 10.092307
1.6599394 11.920569 10.067969
2.0416715 11.828946 10.04142
2.4330997 11.792487 10.072394
2.8240008 11.741758 10.102263
3.1885514 11.584965 10.051376
3.5753231 11.511665 10.083457
3.939466 11.364201 10.061332
4.321013 11.265758 10.093413
4.6879869 11.125235 10.098945
5.0509424 10.973955 10.105582
5.4249911 10.842762 10.142088
5.7800837 10.669738 10.150938
6.1790462 10.569561 10.241651
6.5099478 10.347164 10.226163
6.8677239 10.165948 10.26267
9.5767651 13.226508 13.659959
10.028129 12.94123 13.695359
10.45164 12.617126 13.705316
10.863795 12.278168 13.714166
11.280391 11.942083 13.741821
11.703496 11.608629 13.789391
12.109056 11.253042 13.828109
12.528773 10.905028 13.894484
16.742266 13.640547 18.065042
17.202635 13.1076 18.091591
17.566296 12.502375 18.03628
18.022331 11.962735 18.09491
19.842207 12.259506 19.510908
19.701939 11.303764 19.000929
20.066439 10.660207 19.007566
20.399231 9.9996567 19.004248
20.713905 9.3303709 19.004248
21.010298 8.6527081 19.007566
21.284523 7.9656367 19.010885
21.540041 7.2711506 19.017521
21.7691 6.5673237 19.02084
22.012218 5.8661652 19.05624
22.264927 5.1635976 19.119297
32.16391 6.36379 27.427225
34.605072 5.683187 29.335505
32.536041 4.2610035 27.44935
32.490345 3.1833329 27.308857
32.568829 2.1235819 27.302219
35.138618 1.1443548 29.409622
32.73188 0 27.380762
31.954973 0 28.249765
31.971609 1.0412152 28.279455
32.044521 2.0893955 28.389084
31.737125 3.1095343 28.191525
31.62678 4.1419244 28.198378
31.633261 5.195127 28.339979
33.63834 6.6555128 30.314426
31.269737 7.2519588 28.377665
30.933493 8.2436476 28.301153
21.34519 6.4394383 19.710201
21.088785 7.1188226 19.677084
20.841057 7.7996712 19.672516
20.5415 8.4596415 19.639399
20.250546 9.1216545 19.634832
19.93943 9.7742634 19.631405
19.609575 10.417499 19.630264
19.261219 11.050906 19.631405
18.942959 11.703906 19.685078
18.526134 12.297146 19.657671
18.19919 12.952821 19.747885
17.691904 13.480401 19.66338
17.242746 14.048307 19.662239
12.211517 10.628889 14.312163
11.825017 10.989081 14.271053
11.406034 11.313578 14.202536
11.024642 11.671333 14.1934
10.626919 12.010452 14.177413
10.208103 12.323132 14.14658
9.7944603 12.639683 14.136302
9.3543692 12.919356 14.100902
8.9592628 13.261948 14.148864
6.3855982 10.149519 10.6008
6.0283823 10.311844 10.559689
5.6698523 10.466256 10.523146
5.3071017 10.607141 10.485461
4.9536304 10.762529 10.474042
4.5866446 10.884735 10.442067
4.2271447 11.021025 10.435215
3.8843677 11.205257 10.48432
3.4972763 11.260374 10.423796
3.1189618 11.332125 10.390678
2.7623477 11.485414 10.443209
2.3922586 11.594543 10.466048
2.0021684 11.600075 10.406666
1.6276271 11.688523 10.432931
1.2428973 11.703197 10.404383
0.86120969 11.736162 10.40324
0.47874579 11.757976 10.40324
0.095774531 11.767328 10.40324
-0.28657287 11.734509 10.376975
-0.66830122 11.717674 10.375834
-1.0496993 11.693572 10.379259
-1.4302363 11.657055 10.382685
-1.809508 11.608153 10.386111
-2.1933615 11.579909 10.419228
-2.5699656 11.506163 10.422654
-2.9524765 11.452688 10.45577
-3.3342197 11.386469 10.488887
-3.7155764 11.309951 10.524288
-4.0733271 11.159963 10.502591
-4.4257421 10.999893 10.482036
-4.7840438 10.855919 10.487745
-5.1538749 10.734039 10.526572
-5.5220141 10.601838 10.567682
-5.9021955 10.484018 10.6362
-8.2925091 13.669115 14.134018
-8.737978 13.399529 14.142012
-9.1724596 13.112245 14.14658
-9.6617785 12.896677 14.24593
-8.8947306 11.100587 12.575245
-10.4485 12.203423 14.202536
-10.120233 11.069391 13.259278
-10.524795 10.784962 13.322086
-11.693034 11.226622 14.330435
-12.062825 10.849571 14.342997
-14.409344 12.135353 16.65432
-14.761199 11.631922 16.614351
-15.149673 11.15831 16.633764
-15.462266 10.63001 16.588087
-15.791374 10.115512 16.578951
-16.110043 9.5948267 16.576668
-16.435299 9.0772324 16.598364
-9.3475513 4.7724023 9.2784119
-9.4628687 4.4491258 9.244153
-9.5979271 4.1367106 9.2395849
-9.6938257 3.8088827 9.2076101
-9.8394413 3.5008602 9.2327328
-9.9124966 3.1673336 9.1996164
-10.007854 2.8423014 9.1973324
-10.090054 2.5137944 9.1927643
-10.16653 2.1840351 9.1927643
-10.201726 1.84644 9.1653576
-10.255143 1.5132108 9.164216
-10.331048 1.1822796 9.1927643
-10.371781 0.84601164 9.1996164
-10.355117 0.50607425 9.1653576
-10.364811 0.16873001 9.164216
-10.114438 0.16465415 9.4474773
-10.096168 0.4934189 9.4404163
-10.170205 0.82956934 9.5298538
-10.132806 1.159593 9.5251465
-10.00742 1.4766575 9.4474773
-10.037127 1.8166486 9.5263233
-9.9147749 2.1299517 9.4710131
-9.8401918 2.4515452 9.4710131
-9.7588177 2.7715733 9.4745436
-9.6622324 3.0873671 9.4733667
-9.5898609 3.41206 9.5063181
-9.44909 3.7127213 9.4816046
-9.3845644 4.0447512 9.5439758
-9.2536383 4.3507528 9.54986
-16.24131 8.2920179 17.030878
-15.979348 8.8254108 17.048531
-15.71393 9.3589096 17.08148
-15.434928 9.8871822 17.119139
-15.087274 10.372209 17.099133
-14.718332 10.840611 17.072065
-14.389346 11.3389 17.109724
-14.029029 11.815058 17.12973
-11.792331 10.606282 14.81258
-11.383589 10.929519 14.738441
-10.990124 11.261794 14.696075
-10.630486 11.627501 14.713728
-10.233271 11.952044 14.694899
-9.7970543 12.226683 14.632527
-9.3689575 12.505816 14.593692
-8.9699345 12.82273 14.614875
-8.5416117 13.098404 14.604283
-6.1186728 10.085831 11.017349
-6.8052373 12.088083 12.955564
-5.3912673 10.350814 10.899668
-5.0504045 10.518541 10.897314
-4.6748657 10.608172 10.826705
-4.324275 10.747703 10.819644
-3.9591887 10.84725 10.78434
-3.6004775 10.959599 10.773748
-3.2400684 11.064939 10.767864
-2.8766193 11.158439 10.76198
-2.523978 11.300268 10.81376
-2.1480207 11.340531 10.779633
-1.7674664 11.338453 10.717261
-1.3971606 11.387474 10.714908
-1.0253118 11.421897 10.7102
-0.65299022 11.449218 10.7102
-0.27914596 11.430394 10.678426
0.093559384 11.495165 10.736091
0.46634015 11.453294 10.705493
0.84562516 11.523784 10.791401
1.2138844 11.430008 10.734914
1.5771155 11.325783 10.679603
1.9505019 11.300732 10.7102
2.3300338 11.292959 10.769041
2.6828265 11.154778 10.714908
3.0454919 11.065187 10.718438
3.4331975 11.054056 10.810229
3.7932472 10.942402 10.816113
4.1271019 10.760193 10.763157
4.4785805 10.628284 10.771395
4.825315 10.483744 10.778456
5.1820421 10.357187 10.816113
5.5362253 10.219587 10.854949
5.8977323 10.088361 10.91379
8.2722549 13.148245 14.507785
8.7007799 12.879328 14.516023
9.1345997 12.615832 14.546619
9.588253 12.373573 14.619582
9.9529705 12.015138 14.571333
10.386378 11.738596 14.638412
10.743926 11.374151 14.612521
11.121877 11.031724 14.630174
11.505522 10.692172 14.669008
11.881668 10.341788 14.711374
16.910791 13.777851 20.371859
17.297174 13.179635 20.309486
17.689283 12.589908 20.277712
18.086557 12.005366 20.274181
18.468815 11.410957 20.275358
18.830452 10.803758 20.275358
19.172132 10.185109 20.275358
19.493494 9.5556669 20.275358
19.797646 8.9176502 20.278889
20.080915 8.2699585 20.282419
20.371323 7.6238756 20.314194
20.615847 6.9591751 20.321255
20.866425 6.2950039 20.355383
30.17985 8.0428047 29.169733
30.424421 7.0559163 29.168556
32.823391 6.4942713 31.249166
30.879972 5.071414 29.226219
30.896246 4.0462518 29.101477
31.096855 3.046802 29.181501
31.231102 2.0363584 29.22975
31.163713 1.0149046 29.120306
31.110931 0 29.055582
30.379322 0 29.967176
30.365679 0.98891515 29.969599
32.611538 2.1263666 32.237415
30.414124 2.9799094 30.145163
30.151316 3.9486935 29.996235
29.954727 4.9194613 29.944172
29.914793 5.9187903 30.080992
31.788023 7.3721576 32.188984
29.561184 7.877933 30.177855
29.269119 8.829937 30.157272
20.596273 6.9525681 21.44318
20.26709 7.584867 21.346315
20.006062 8.2391319 21.342684
19.778761 8.9091444 21.39838
19.414368 9.5168791 21.328154
19.09214 10.142614 21.325733
18.730593 10.746466 21.301517
18.345814 11.334961 21.272457
17.967144 11.926104 21.272457
17.546432 12.488237 21.24461
17.150175 13.067628 21.268826
11.92255 9.7137451 15.170051
11.548206 10.051544 15.102246
11.20772 10.415422 15.09256
10.832262 10.744457 15.050182
10.470052 11.084211 15.040496
10.077689 11.389717 15.00175
9.6945705 11.7032 14.990853
9.3024845 12.004791 14.981167
8.9147224 12.312159 14.994486
8.4762611 12.546985 14.936367
6.4880848 10.312415 12.018352
6.1440258 10.509658 12.008665
5.7793913 10.668459 11.968709
5.0698824 10.133017 11.176848
4.7337775 10.284865 11.168373
4.3822017 10.399565 11.13205
4.0268722 10.498874 11.092093
3.7014978 10.677732 11.14779
3.3319566 10.728085 11.081196
2.9803445 10.828486 11.078774
2.6245801 10.912598 11.071509
2.2612917 10.959787 11.038818
1.9079497 11.054194 11.065455
1.5467904 11.108008 11.063034
1.1809094 11.119514 11.030342
0.81897658 11.160629 11.038818
0.45496881 11.174014 11.031553
0.091077819 11.190267 11.038818
-0.27299955 11.178713 11.030342
-0.64035207 11.227627 11.093304
-1.0002 11.142153 11.035186
-1.3663787 11.136587 11.067877
-1.7285244 11.088636 11.070299
-2.0892246 11.030116 11.073931
-2.461592 11.020956 11.139314
-2.805227 10.881506 11.084828
-3.1593091 10.789144 11.089671
-3.5118823 10.689921 11.099358
-3.8705997 10.604538 11.135682
-4.2164717 10.479764 11.142946
-4.5583196 10.343706 11.150211
-4.9239335 10.255137 11.221648
-6.2717891 12.041347 13.392604
-5.5861669 9.9226599 11.232545
-6.9814849 11.508063 13.277578
-7.3718119 11.304538 13.312691
-8.6969547 12.432499 14.966638
-9.14044 12.200788 15.038074
-9.51968 11.880521 15.01749
-9.9077282 11.571823 15.027177
-10.306468 11.273093 15.067133
-10.698804 10.963273 15.110722
-11.073006 10.631325 15.142202
-11.446951 10.29564 15.187002
-11.816375 9.9515905 15.239066
-14.025578 11.052248 17.614645
-14.36801 10.582585 17.602537
-14.698787 10.105132 17.595274
-15.036453 9.6319313 17.614645
-15.355711 9.1455622 17.630386
-15.559302 8.5934191 17.533522
-15.83077 8.0824165 17.533522
-9.0119019 4.2370958 9.8231802
-9.1112261 3.9269421 9.7868557
-9.2307911 3.6269479 9.7832241
-9.3127317 3.313458 9.7505322
-9.4121418 3.0074556 9.7468996
-9.5286608 2.7062073 9.7711153
-9.5509548 2.3794858 9.7093649
-9.6809483 2.0797198 9.7674837
-9.6831217 1.7525762 9.7069435
-9.7350368 1.4364656 9.7069435
-9.7766342 1.1188328 9.7069435
-9.8066483 0.79991454 9.7057333
-9.8336191 0.48058763 9.7117872
-9.900506 0.16117153 9.7674837
-9.565588 0.15571935 9.9671364
-9.5590277 0.46716785 9.9708681
-9.5316172 0.7774806 9.9634047
-9.5309143 1.0907127 9.9945011
-9.4608335 1.3960053 9.9634047
-9.4103804 1.703212 9.9634047
-7.3854141 1.5865792 7.8699698
-9.3421803 2.3274727 10.030574
-9.2373533 2.6234739 10.004452
-7.0726848 2.2599304 7.7356319
-6.9425097 2.4701359 7.6771703
-8.9441824 3.514334 10.011915
-6.5170975 2.8088715 7.3935676
-6.5259399 3.0682795 7.512979
-6.5693521 3.3539898 7.6846333
-15.189654 8.3892622 18.078417
-6.1341033 3.6533523 7.4383469
-14.647815 9.3829803 18.123196
-10.236921 7.0376859 12.942475
-5.7380548 4.2262955 7.4246645
-5.4989862 4.3332372 7.2940578
-5.2472692 4.4191785 7.1472812
-5.0988708 4.5860367 7.1447935
-5.024406 4.8239918 7.256742
-4.8230314 4.9422545 7.1945481
-4.5581012 4.9855976 7.0378203
-4.6372261 5.4160914 7.4283957
-4.1822491 5.2194295 6.968164
-3.9628968 5.2897301 6.8860683
-3.8016212 5.4345059 6.9097018
-3.7961886 5.8213854 7.2405715
-6.8087273 11.223296 13.676358
-3.2893088 5.8427701 6.9855781
-3.1801152 6.1055737 7.1721587
-3.0318897 6.3145547 7.2977896
-2.7636011 6.2711439 7.1398177
-2.5522199 6.3433757 7.1236477
-2.4651537 6.7539444 7.4905896
-3.4271259 10.431929 11.439879
-3.0837417 10.531078 11.432416
-2.7527373 10.677897 11.48839
-2.3899236 10.700085 11.422464
-2.0337079 10.737014 11.385149
-1.682409 10.792803 11.380174
-1.3264357 10.811034 11.347833
-0.97351766 10.844913 11.344101
-0.62319922 10.926878 11.402563
-0.26571682 10.880501 11.339126
0.088580094 10.883385 11.339126
0.44511458 10.931995 11.398831
0.80071098 10.911715 11.398831
1.1494066 10.822882 11.339126
1.5053594 10.810479 11.371466
1.8615154 10.785166 11.402563
2.2062745 10.693134 11.375197
2.5540004 10.619138 11.378929
2.8995631 10.534984 11.383904
3.2504976 10.465807 11.417489
3.5917795 10.361227 11.424953
3.9399571 10.272268 11.462269
4.2629552 10.116576 11.437391
4.6049628 10.004994 11.474708
5.2935882 10.580131 12.325515
5.6362996 10.40432 12.328003
5.975585 10.221531 12.335466
6.3261065 10.05496 12.376513
8.2407026 12.198298 15.336926
8.667695 11.970988 15.397876
9.0454407 11.673078 15.385437
9.4266949 11.379822 15.395388
9.7976465 11.073215 15.404095
10.152884 10.748439 15.404095
10.532115 10.446743 15.455093
10.872694 10.10408 15.4638
11.227337 9.7722597 15.507337
11.566313 9.4235048 15.543408
17.170218 12.220476 21.956806
17.53303 11.637949 21.924465
17.90255 11.06109 21.924465
18.251026 10.471319 21.921978
18.639128 9.9019537 21.989147
28.472361 13.957087 33.035961
28.914837 13.024398 33.039696
29.323456 12.07633 33.039696
29.690933 11.111697 33.0285
28.479851 8.5918303 30.992283
28.676355 7.6421299 30.918894
30.895233 7.1651053 33.042183
31.113256 6.1559124 33.043427
31.300676 5.1405067 33.047157
31.454964 4.1194229 33.050888
29.506056 2.890939 30.887798
29.542822 1.9262775 30.844263
29.526756 0 30.762167
28.685911 0 31.568691
28.670712 0.93371534 31.568691
30.002003 1.9562174 33.087151
28.711918 2.8131311 31.74861
28.52466 3.7356627 31.659288
28.367355 4.6587677 31.63632
30.0734 6.9745088 33.973984
29.858458 7.9571552 34.005886
29.584743 8.9251547 34.00716
29.249994 9.8737555 33.973984
28.941343 10.831166 34.00716
28.517706 11.744497 33.940807
28.140404 12.675562 33.965054
18.439526 9.0390139 22.599558
17.784172 10.203467 22.563829
17.414024 10.759254 22.526825
8.1775846 5.4280591 10.801494
7.9776769 5.6779132 10.775973
10.927258 9.5110712 15.942572
10.577063 9.8293476 15.890255
6.9487715 6.8924451 10.770869
6.7446289 7.1402602 10.809151
6.5086422 7.3560119 10.809151
9.1571341 11.054412 15.797106
6.0169439 7.7648244 10.810427
5.7542138 7.9471674 10.797666
5.4944348 8.1331358 10.801494
5.2267928 8.3076687 10.801494
4.9413228 8.4523754 10.774697
4.6635833 8.6087351 10.774697
4.3809009 8.755971 10.774697
4.0930915 8.8928747 10.773421
3.8127191 9.0481043 10.805323
3.5033143 9.133852 10.765765
3.2147884 9.2737188 10.801494
2.9122608 9.3767662 10.805323
2.6055074 9.4665909 10.805323
2.2959929 9.5463829 10.805323
1.9781878 9.5876694 10.773421
1.669995 9.6755428 10.805323
1.3532153 9.7178831 10.797666
1.0328788 9.7256489 10.763213
0.7180565 9.7853384 10.797666
0.43086645 10.582061 11.65515
0.086432047 10.619465 11.687051
-0.25930154 10.61781 11.688327
-0.60483581 10.604901 11.689603
-0.94970077 10.579596 11.689603
-1.2942653 10.548831 11.695983
-1.6417618 10.532046 11.730435
-1.9897479 10.504926 11.766164
-2.3318884 10.440252 11.772544
-2.66469 10.336362 11.747024
-3.0007002 10.247489 11.750852
-3.3323002 10.143286 11.749576
-3.6849453 10.095888 11.827413
-2.6322811 6.5423622 7.7607427
-2.8157825 6.389554 7.6841817
-3.0408373 6.33319 7.7313943
-3.3417819 6.4159613 7.9610777
-3.4828656 6.1865835 7.8130593
-3.8219163 6.2999287 8.1090956
-3.6873748 5.6545215 7.428978
-3.782407 5.4070392 7.2618198
-3.9682183 5.2968335 7.2835121
-4.145051 5.1730065 7.2949963
-4.3021846 5.0247765 7.2796841
-4.6481004 5.0840373 7.5808244
-4.7916851 4.9101334 7.5501995
-4.9213681 4.7250643 7.508091
-4.9484177 4.450716 7.3243446
-5.176692 4.3597393 7.4481182
-5.3231425 4.1946712 7.4583263
-5.4549894 4.017807 7.4557743
-5.6077194 3.8551991 7.4889507
-5.6804395 3.6387303 7.4238739
-5.7729559 3.4382598 7.3945255
-5.8848562 3.2502122 7.3983536
-6.0030212 3.0648489 7.4174938
-6.0964522 2.8663487 7.4136658
-6.2184644 2.6801608 7.4519463
-6.3078036 2.4784522 7.4583263
-6.3960581 2.2757092 7.4710865
-6.5484738 2.0924296 7.5655122
-8.940918 2.5392842 10.228562
-9.0154581 2.2460742 10.224734
-9.1121302 1.9575229 10.256635
-9.1972609 1.6646389 10.285983
-9.2741003 1.3684517 10.316607
-9.2849293 1.0625623 10.284707
-9.2591238 0.75525373 10.223458
-9.2869081 0.45386884 10.23239
-9.3187876 0.15170166 10.256635
-9.0599194 0.14748751 10.53614
-9.0491953 0.44225135 10.534833
-8.9751015 0.73208642 10.47078
-8.9811411 1.027797 10.511304
-8.9073381 1.3143336 10.469473
-8.8609438 1.6037678 10.47078
-8.777667 1.8856714 10.439406
-6.3891892 1.5917764 7.6563492
-6.3761683 1.810877 7.7073307
-6.1971211 1.9801623 7.5648446
-6.1410351 2.1849723 7.5792236
-6.1106071 2.40097 7.6341267
-5.9590154 2.5683382 7.5452361
-5.8397036 2.7456341 7.5034056
-5.7692676 2.9455056 7.5321641
-5.6673832 3.1301017 7.5282426
-5.6349373 3.3560588 7.6262836
-5.5075669 3.5279932 7.6053681
-5.5315537 3.8028362 7.8053718
-5.3351426 3.9295352 7.7047162
-9.1320009 7.1960769 13.519202
-5.064724 4.2654414 7.6994872
-4.8705425 4.3806734 7.6171331
-4.704288 4.516643 7.5831456
-4.5571361 4.6697865 7.5870671
-4.39817 4.8106666 7.5792236
-4.2217064 4.9307814 7.5478506
-4.0589743 5.0655832 7.5478506
-3.9141843 5.2247081 7.5909886
-3.7285156 5.3299999 7.5635371
-7.6022754 11.657949 16.183302
-3.4169695 5.6324272 7.6602712
-3.260504 5.7916045 7.7282462
-3.0697424 5.8936667 7.7269387
-2.8534093 5.942831 7.6654997
-2.7173963 6.166296 7.8354378
-4.6725497 11.613317 14.555822
-2.2287128 6.1061516 7.5583081
-3.8880839 11.835052 14.485232
-2.9226491 9.9809418 12.093032
-2.5928569 10.057721 12.077345
-2.2707248 10.166411 12.11264
-1.7693518 9.3413401 11.055104
-1.4641842 9.3928709 11.053797
-1.1568526 9.4288578 11.045954
-0.84662008 9.431284 11.010659
-0.54129928 9.4908829 11.053797
-0.23208788 9.5034723 11.053797
0.077113271 9.474515 11.017195
0.38555568 9.4692307 11.01981
0.6913498 9.4213915 10.984515
0.99990189 9.4151363 11.009352
1.3061413 9.3798285 11.011967
1.6071259 9.3112946 10.987129
1.9093534 9.2540493 10.987129
2.2087686 9.1837187 10.983208
2.5068231 9.1080418 10.984515
2.8006244 9.0173244 10.979286
3.0948601 8.9277601 10.987129
3.3842177 8.8233433 10.988437
3.6678748 8.7043686 10.983208
3.9497252 8.5813894 10.984515
4.2249413 8.4442587 10.979286
4.5007725 8.3081951 10.987129
4.7688165 8.1572943 10.987129
5.0318065 7.9977489 10.987129
5.2894635 7.8297276 10.987129
5.5375595 7.6479454 10.979286
5.8021555 7.4876409 11.014581
6.0277405 7.2766347 10.987129
6.2815118 7.0993109 11.022424
6.5092635 6.8910885 11.022424
6.7301164 6.6755629 11.022424
6.9388962 6.4483709 11.014581
7.1451116 6.2190957 11.014581
7.3489838 5.9874907 11.022424
7.5158367 5.7267146 10.987129
7.6982565 5.479043 10.987129
7.8725181 5.2255645 10.987129
8.0326986 4.9630027 10.979286
8.1909609 4.699471 10.980594
8.371357 4.4472456 11.022424
8.5389318 4.1857653 11.057719
27.279909 12.287961 34.79018
27.718437 11.415333 34.856846
8.8684931 3.3189933 11.010659
8.9814119 3.0318048 11.022424
9.0764132 2.7381816 11.023731
28.962814 7.7184696 34.852924
29.199795 6.7719054 34.854233
9.2924423 1.8385559 11.014581
9.3506908 1.5356629 11.018502
9.399065 1.2309257 11.022424
9.4341507 0.92433751 11.022424
9.459239 0.61676979 11.022424
9.4709311 0.3084386 11.018502
9.4714556 0 11.013273
9.129014 0 11.221066
9.0948133 0.29618961 11.184955
9.1020689 0.59348124 11.211703
9.0562706 0.8873136 11.184955
9.0225906 1.1816216 11.184955
8.980422 1.4748536 11.186292
8.9532747 1.7714499 11.21839
8.8834505 2.0602162 11.209028
8.8179932 2.3499584 11.217052
8.7368298 2.6357355 11.217052
8.647439 2.9190674 11.21839
8.5468235 3.1986101 11.217052
8.4321451 3.472625 11.209028
8.3215885 3.7483761 11.21839
8.1717224 4.0057602 11.186292
8.036046 4.2691135 11.184955
7.8937736 4.5289631 11.186292
7.7356954 4.7794991 11.176929
7.5823712 5.0329728 11.186292
7.4145322 5.2771091 11.186292
7.2388353 5.5156531 11.186292
7.0478754 5.742166 11.174254
6.8621602 5.9728155 11.18228
6.6641111 6.1930113 11.18228
6.4605446 6.4081764 11.184955
6.244802 6.611114 11.178267
6.0299091 6.8149514 11.184955
5.8028073 7.0050974 11.180942
5.573719 7.1928453 11.184955
5.3372793 7.3713374 11.186292
5.0908623 7.535748 11.178267
4.8457761 7.7020655 11.184955
4.5914111 7.8538342 11.18228
4.3333387 7.9991212 11.18228
4.0677533 8.1300926 11.174254
3.8036962 8.2641191 11.18228
3.5326867 8.3835487 11.18228
3.2579334 8.4940939 11.18228
2.9800842 8.5966654 11.183617
2.6967504 8.6828766 11.175592
2.4141409 8.7712994 11.18228
2.1273594 8.8452311 11.18228
1.8385431 8.9108543 11.183617
1.5462285 8.9584703 11.174254
1.2544148 9.0083637 11.179605
0.96087605 9.0476675 11.183617
0.66578919 9.0730639 11.18228
0.37006742 9.0888405 11.180942
0.073988825 9.0906296 11.174254
-0.22210625 9.0947475 11.18228
-0.51950604 9.1087704 11.214378
-0.81562042 9.0859509 11.21304
-1.1101375 9.0481081 11.205016
-1.4052347 9.0147047 11.214378
-1.6981177 8.9652576 11.215715
-1.9885592 8.9031096 11.21304
-2.2846322 8.862114 11.249151
-2.5703511 8.777833 11.242464
-2.8628547 8.7143269 11.274563
-3.1382704 8.5981264 11.250488
-3.4262207 8.5156479 11.282587
-2.4984391 5.6694403 7.615345
-2.6628149 5.5458779 7.5618477
-4.2281981 8.1178112 11.250488
-5.9116554 10.500822 14.812074
-3.3382072 5.5025978 7.9109178
-3.5030646 5.3718848 7.8828316
-3.6386395 5.20152 7.8025856
-3.8216763 5.1012268 7.8346839
-4.059176 5.0658345 7.9791269
-4.3040047 5.0269022 8.1342688
-4.1099997 4.4954691 7.4869514
-4.2723861 4.3779974 7.5190496
-4.396142 4.220788 7.4909635
-4.5570855 4.098743 7.5337615
-4.5940385 3.8690367 7.3826318
-5.1747651 4.0777488 8.0981588
-5.1023746 3.7580926 7.7892113
-8.3691797 5.7536497 12.483603
-8.5648518 5.4864039 12.502326
-5.4594712 3.2515545 7.8106103
-5.5643201 3.07318 7.8132849
-5.7660642 2.9438701 7.9577279
-5.6431861 2.6532383 7.6648302
-5.901422 2.5435154 7.898881
-5.7998099 2.278852 7.6594801
-5.7448215 2.0440001 7.494976
-8.3061724 2.6540658 10.71819
-8.3598986 2.3742707 10.682079
-8.4559784 2.1066878 10.711503
-8.5445375 1.8355891 10.742264
-8.5804853 1.5530069 10.71819
-8.5909662 1.267651 10.674055
-8.6287565 0.98747033 10.675392
-8.6563263 0.70608437 10.675392
-8.6747227 0.42395017 10.675392
-8.7122116 0.14182714 10.710166
-8.441678 0.13742308 10.976973
-8.4327316 0.41212362 10.976973
-8.3624659 0.6821146 10.90864
-8.3347874 0.95382863 10.907273
-8.3003645 1.2247708 10.90864
-8.2550659 1.4941083 10.907273
-8.2791367 1.778574 11.009772
-8.1689196 2.035171 10.945539
-8.1003685 2.3005621 10.948274
-8.0702562 2.5786839 11.01524
-5.2239814 1.8586857 7.209105
-7.8667865 3.0910051 10.989273
-5.2184319 2.2491462 7.3881369
-5.1091642 2.4021587 7.3403039
-5.2164412 2.6632595 7.6150017
-8.5462084 4.7200804 12.693492
-8.3916559 4.9979062 12.698958
-7.473948 4.7876019 11.540035
-4.7138348 3.2406704 7.4373364
-4.5356073 3.340647 7.323904
-6.9368114 5.4662533 11.482635
-4.18643 3.5257545 7.1161728
-4.2249751 3.800036 7.3881369
-3.923135 3.7666488 7.0710731
-3.8182752 3.9126611 7.1079726
-3.7349987 4.0852976 7.196805
-3.457164 4.037827 6.9111743
-5.5054393 6.8707657 11.447103
-3.3213594 4.4333968 7.2022719
-3.3150792 4.7389832 7.5193357
-3.4300778 5.2599611 8.1643972
-4.5938916 7.5724287 11.515435
-3.1140897 5.5315304 8.2532291
-2.8634388 5.4975796 8.059164
-2.5423906 5.2950687 7.636868
-2.4475343 5.5539274 7.8910661
-1.8283755 4.5443077 6.3686123
-1.6225471 4.4453993 6.1526809
-1.3533072 4.1193714 5.6374516
-1.1969423 4.0875969 5.5376859
-0.98663664 3.8271744 5.1386228
-0.89934772 4.0265293 5.364121
-0.81456244 4.3005037 5.6907516
-0.64517105 4.1388292 5.4461203
-0.54493004 4.4414196 5.8178501
-0.40204841 4.4787889 5.84655
-0.28974992 5.0803366 6.6159768
-0.11260817 4.6110492 5.996882
0.039045054 4.7972665 6.2374134
0.18700567 4.5928512 5.9763823
0.6343407 8.6444979 11.269437
0.51463741 4.8458571 6.3358126
1.2067565 8.6661139 11.376037
1.4883745 8.6232777 11.377403
1.7680577 8.5692329 11.376037
2.0448172 8.5020332 11.369203
2.3221452 8.4370508 11.377403
2.5952256 8.3559914 11.376037
2.8668675 8.2700691 11.380136
3.1322775 8.1664829 11.371936
3.3992908 8.0669823 11.381503
3.6811624 7.9978952 11.447103
3.9160233 7.8268347 11.37877
4.1657047 7.6896768 11.370569
4.4175067 7.5563622 11.380136
4.6611228 7.4085703 11.380136
4.8997989 7.2529268 11.380136
5.1295838 7.0844889 11.371936
5.3619704 6.9195852 11.381503
5.5836883 6.7405791 11.380136
5.8001328 6.5552602 11.380136
6.0104308 6.3629947 11.380136
6.2143588 6.1639857 11.380136
6.4117012 5.9584446 11.380136
6.6022491 5.7465892 11.380136
6.7841702 5.5273156 11.377403
7.0022922 5.3354177 11.445736
7.1311407 5.0754123 11.380136
7.3346019 4.8685102 11.445736
7.4838185 4.623877 11.437535
7.592977 4.3563843 11.381503
7.7298236 4.1064343 11.380136
7.8603349 3.8531184 11.381503
7.9748783 3.5922039 11.371936
8.0943813 3.3335233 11.381503
8.1976128 3.0679195 11.380136
8.3180265 2.8078694 11.414303
8.3979692 2.5335078 11.404736
8.4820786 2.2604389 11.412936
8.5511608 1.9831526 11.412936
8.6132431 1.7041728 11.415669
8.6319942 1.4176314 11.373302
8.6798172 1.1367311 11.381503
8.7122183 0.85360408 11.381503
8.7353859 0.56957245 11.381503
8.7492971 0.2849372 11.381503
8.7528839 0 11.380136
8.4205303 0 11.589866
8.4221458 0.27428293 11.598235
8.4087553 0.54827517 11.598235
8.3854446 0.82158762 11.59684
8.3482304 1.0933057 11.588471
8.31322 1.3652792 11.595446
8.2643757 1.6351479 11.595446
8.2057858 1.9030547 11.59405
8.1404734 2.1694026 11.595446
8.065547 2.4332223 11.595446
7.9811125 2.6941392 11.59405
7.8844447 2.9507177 11.587076
7.7898445 3.2081053 11.595446
7.6812944 3.4599619 11.595446
7.5646038 3.7081516 11.595446
7.4336319 3.9490836 11.585681
7.3073049 4.1924834 11.595446
7.1661067 4.4275789 11.59405
7.0165052 4.6573658 11.591261
6.862843 4.8844581 11.59405
6.7010255 5.1058669 11.595446
6.5312805 5.3212771 11.595446
6.3492637 5.5263906 11.585681
6.1712136 5.7349577 11.595446
5.9812732 5.9327893 11.595446
5.7842979 6.1235971 11.59405
5.581912 6.308629 11.59405
5.373611 6.4869752 11.59405
7.665554 9.8923435 17.225088
4.9353967 6.8162956 11.582891
4.7154517 6.9800472 11.59405
4.5121994 7.1718655 11.662398
4.2518167 7.2729411 11.595446
4.0094533 7.4012446 11.585681
5.5965772 11.185705 17.215324
5.2066402 11.312233 17.140001
4.8321309 11.467308 17.127447
3.6219573 9.4431782 13.920671
3.3113387 9.5522375 13.915092
2.505398 8.0667686 11.626132
3.3010697 11.993777 17.121868
2.9025292 12.068267 17.084208
1.7066559 8.271637 11.624738
1.4322038 8.2978382 11.589866
1.1614932 8.3410635 11.591261
0.88948637 8.3754578 11.592655
0.61632299 8.3989611 11.591261
0.34335557 8.4327984 11.616368
0.068738803 8.4455862 11.624738
-0.20560439 8.419034 11.591261
-0.47947404 8.4068689 11.589866
-0.75286031 8.3868074 11.589866
-1.0254487 8.3578577 11.589866
-1.2971065 8.3210526 11.591261
-1.5717926 8.2983208 11.624738
-1.8355441 8.2180357 11.589866
-2.108896 8.1804314 11.627527
-2.3666437 8.0821657 11.591261
-2.6344709 8.0191431 11.617763
-2.8874929 7.9110546 11.591261
-3.1532998 7.8373208 11.627527
-3.4067307 7.7305293 11.627527
-3.6539195 7.6100636 11.619158
-3.9024968 7.4924903 11.627527
-4.1433125 7.3597293 11.624738
-4.3817244 7.2226992 11.627527
-4.6111774 7.0711555 11.619158
-3.5812488 5.1194787 8.5992928
-5.065135 6.761013 11.627527
-3.9067578 4.8756175 8.5992928
-4.1721396 4.872889 8.8294439
-4.3237529 4.72927 8.8196802
-4.3869233 4.4953656 8.6453228
-4.633265 4.4484529 8.8406029
-6.299911 5.6662788 11.662398
-5.2020149 4.3810663 9.3608847
-6.6361332 5.2293167 11.628922
-6.8632116 5.055016 11.732141
-7.0040712 4.8151636 11.698665
-7.0444489 4.5124764 11.514544
-7.171052 4.2709389 11.488041
-7.3275604 4.0470195 11.521518
-7.28933 3.721575 11.264864
-7.403852 3.4810445 11.260679
-7.511374 3.2374053 11.25789
-7.5835304 2.9797087 11.214649
-8.8327494 3.1426806 12.903821
-8.9525652 2.8606074 12.935903
-7.8135729 2.21911 11.179778
-7.8747802 1.9618906 11.170014
-8.005805 1.7198553 11.270444
-8.0086803 1.4495142 11.202096
-8.0516176 1.1880666 11.202096
-8.0356798 0.91959888 11.132353
-8.0613546 0.65755337 11.132353
-8.1048031 0.39609715 11.168619
-8.1134014 0.13207904 11.168619
-7.828742 0.12744503 11.420225
-7.7970743 0.38105786 11.386097
-7.7795682 0.63456845 11.384675
-7.7848182 0.89089042 11.428758
-7.7690558 1.1463729 11.454354
-7.6806169 1.3901371 11.384675
-7.6322517 1.6396064 11.386097
-7.5757852 1.8874 11.387519
-7.5122123 2.1335216 11.390364
-7.4415727 2.3778009 11.394629
-7.3666625 2.6210489 11.404583
-7.2965007 2.8669295 11.434445
-7.2503505 3.1249042 11.515501
-7.1200905 3.3476293 11.475684
-7.0603209 3.6046543 11.562428
-7.105669 3.9244685 11.839721
-7.0353112 4.190094 11.943528
-6.8746738 4.4037232 11.907978
-6.640924 4.5655069 11.7544
-6.4550447 4.7543855 11.693253
-6.3175464 4.9782681 11.731647
-6.2215099 5.2396708 11.863895
-6.0520134 5.4433141 11.872427
-5.8350582 5.6023088 11.798482
-5.6332712 5.7725234 11.764354
-5.4759436 5.9895225 11.836877
-5.2780852 6.1645885 11.836877
-5.0581732 6.3125792 11.798482
-4.8470984 6.4699745 11.791372
-4.6507001 6.648284 11.834033
-4.431304 6.7953229 11.832611
-4.1961403 6.9167876 11.799905
-3.96543 7.0437584 11.78995
-3.7489195 7.1976337 11.836877
-3.5012591 7.2921162 11.798482
-3.2620482 7.4022169 11.798482
-3.0193806 7.5044727 11.798482
-2.7735128 7.5987759 11.798482
-2.5250103 7.6859527 11.799905
-2.2718537 7.7584543 11.791372
-2.0195756 7.8339558 11.799905
-1.7635131 7.8955412 11.799905
-1.5043118 7.9420538 11.78995
-1.2459049 7.99259 11.798482
-0.98212081 8.0047159 11.762932
-0.72104996 8.0324421 11.762932
-0.45927051 8.0526295 11.764354
-0.19691716 8.0633116 11.764354
0.065644853 8.0654488 11.764354
0.32817698 8.0600119 11.765776
0.59028202 8.0440874 11.764354
0.85180116 8.0206108 11.764354
1.1116109 7.982842 11.755822
1.3716893 7.9472332 11.762932
1.6298389 7.8993287 11.764354
1.8847275 7.8364048 11.755822
2.140353 7.7765455 11.764354
2.3923426 7.7027574 11.764354
2.657763 7.6668639 11.835455
2.8884511 7.5307784 11.764354
3.1320446 7.4327698 11.764354
3.3931077 7.3720522 11.836877
3.609019 7.2132344 11.764354
3.8423591 7.0927973 11.765776
4.0706987 6.96313 11.764354
4.2936316 6.8244653 11.760088
4.5167646 6.6859403 11.76862
4.7308526 6.5337992 11.765776
4.9386296 6.3732672 11.760088
5.147192 6.2136445 11.76862
5.3467164 6.0428128 11.76862
5.5405746 5.8655772 11.76862
5.7271762 5.6807523 11.765776
5.9083338 5.4906611 11.764354
6.1221623 5.3287225 11.838299
6.2553301 5.0964503 11.76862
6.4179029 4.890141 11.76862
6.5736747 4.6786494 11.76862
6.7565956 4.4848452 11.828344
6.8641605 4.2410212 11.76862
6.9994125 4.0158334 11.770042
7.1255565 3.7854199 11.76862
6.1664743 3.0227919 10.016694
7.3567553 3.3137765 11.76862
7.4778476 3.0796151 11.795638
7.5567765 2.8280895 11.76862
7.6448255 2.5806208 11.76862
7.7191725 2.3287277 11.760088
7.7965341 2.077744 11.76862
7.8600326 1.8228688 11.76862
7.9611087 1.5751449 11.836877
8.0293255 1.3186553 11.868161
8.0003242 1.0477431 11.76862
8.0301895 0.78678042 11.76862
8.0437603 0.52447647 11.757244
8.0624161 0.26256767 11.765776
8.1154375 0 11.836877
7.7329435 0 11.967245
7.7288461 0.25170434 11.967245
7.7156243 0.50308102 11.965796
7.6951609 0.75395507 11.965796
7.6656146 1.0039085 11.964349
7.6297989 1.253041 11.965796
7.5849705 1.5007241 11.965796
7.5776806 1.7573868 12.038202
7.472158 1.9912992 11.967245
7.4033828 2.2334599 11.967245
7.3267617 2.4732537 11.967245
7.240623 2.7097704 11.964349
7.144258 2.9422324 11.957108
7.0506763 3.1759064 11.967245
6.9427257 3.4033084 11.965796
6.8233123 3.6248541 11.957108
6.7057672 3.847358 11.964349
6.5769839 4.0635896 11.964349
6.4747543 4.2977667 12.026618
6.2994137 4.4834509 11.965796
6.1501412 4.6861191 11.965796
5.9936256 4.8832297 11.964349
5.8667936 5.1064496 12.036755
5.6631994 5.262856 11.964349
5.4888945 5.4444022 11.964349
5.308773 5.6201787 11.964349
5.1230254 5.789999 11.964349
4.9318485 5.9536834 11.964349
4.7222624 6.0940466 11.931042
4.5214014 6.244525 11.931042
4.3157487 6.3883862 11.931042
4.1169834 6.5436935 11.964349
3.92542 6.7146235 12.036755
3.6829417 6.798521 11.965796
3.4588635 6.9131231 11.9629
3.2324023 7.0228949 11.964349
3.0024605 7.1252494 11.965796
2.7665997 7.2130871 11.95566
2.5321894 7.3046212 11.964349
2.2930851 7.3831725 11.964349
2.0495641 7.446682 11.952764
1.807842 7.516727 11.964349
1.5712936 7.6155777 12.033858
1.3214628 7.6562324 12.023722
1.0658766 7.6544094 11.960004
0.81379211 7.6627154 11.925249
0.56551749 7.7066078 11.958556
0.31440881 7.7218666 11.960004
0.062898427 7.7280092 11.960004
-0.18867861 7.7259612 11.960004
-0.4400557 7.7157264 11.960004
-0.69096643 7.6973143 11.960004
-0.94114488 7.6707449 11.960004
-1.190326 7.6360464 11.960004
-1.4382457 7.5932555 11.960004
-1.684641 7.5424175 11.960004
-1.9292512 7.4835868 11.960004
-2.1720798 7.4177227 11.961452
-2.4123728 7.343092 11.961452
-2.6501093 7.2606792 11.961452
-2.8846881 7.169704 11.960004
-4.2036748 9.538949 16.13203
-3.3454754 6.9676638 11.961452
-3.5700653 6.8542476 11.960004
-5.6742911 10.079194 17.900183
-5.9930491 9.8787565 17.881357
-4.221416 6.4734635 11.960004
-4.4432969 6.3517966 11.996207
-4.6622782 6.2232742 12.033858
-7.2543564 9.0534067 17.953764
-5.0262771 5.8704867 11.960004
-5.2146959 5.703773 11.960004
-5.4309192 5.5651689 12.033858
-8.4549522 8.1177006 18.139122
-5.728632 5.1524577 11.923801
-5.9104843 4.9777293 11.958556
-6.1068592 4.8122449 12.03241
-6.2813559 4.6264572 12.072957
-6.3515077 4.366539 11.928145
-6.4485102 4.1307354 11.851396
-6.5795474 3.9186499 11.851396
-6.6814957 3.690197 11.812296
-6.7538991 3.4482102 11.735546
-6.8371539 3.2146022 11.692102
-6.9115262 2.9788706 11.647211
-7.0030832 2.7516403 11.644315
-7.3930888 2.6304514 12.143915
-7.1904535 2.2975609 11.681966
-7.2101202 2.0477252 11.599422
-7.2720447 1.8117274 11.597975
-7.3262472 1.5738686 11.596527
-7.3956928 1.3385679 11.631282
-7.4122009 1.0937167 11.595078
-7.4197021 0.84910673 11.557427
-7.4499369 0.60768092 11.567564
-7.4835272 0.36573419 11.595078
-7.4680758 0.1215737 11.558876
-7.1567688 0.11650589 11.770364
-7.1438155 0.34913185 11.761525
-7.1938457 0.58679187 11.869064
-7.1486831 0.81809151 11.832235
-7.1404228 1.0536141 11.869064
-7.0379939 1.2738268 11.761525
-6.9928021 1.5022359 11.761525
-6.9897475 1.7413971 11.845494
-6.9465971 1.9728829 11.874956
-6.8377399 2.1848586 11.804246
-6.7866325 2.414675 11.845494
-6.7044396 2.6342978 11.845494
-6.639822 2.8617661 11.889688
-6.5642323 3.0862834 11.92799
-6.4826369 3.3097172 11.969237
-6.3918605 3.5302315 12.007539
-6.3151283 3.761167 12.087089
-6.3183494 4.0473576 12.338995
-6.1278958 4.21281 12.22851
-5.931983 4.3691311 12.115078
-5.7690358 4.5460382 12.07825
-5.6365075 4.7469902 12.118024
-5.5123115 4.9578943 12.191681
-5.3480129 5.1346908 12.191681
-5.1617794 5.2893763 12.153379
-4.9723697 5.4387197 12.118024
-4.8503871 5.6650548 12.263865
-4.6354132 5.7849765 12.190207
-4.4312301 5.9148684 12.153379
-4.2363558 6.0559688 12.153379
-4.0365019 6.1899014 12.151906
-3.8565814 6.3570695 12.227036
-3.625644 6.4401999 12.153379
-3.4116139 6.5500336 12.144541
-3.1989317 6.6624546 12.153379
-2.9803762 6.7630486 12.153379
-2.7563217 6.8506575 12.143067
-2.534025 6.9426355 12.153379
-2.3067021 7.0214381 12.153379
-2.0751727 7.0867815 12.143067
-1.8447428 7.1557775 12.151906
-1.6110427 7.2129059 12.153379
-1.3744115 7.2562413 12.144541
-1.1384612 7.303329 12.154853
-0.90002829 7.3356266 12.153379
-0.6607796 7.3610353 12.153379
-0.42088163 7.3795371 12.154853
-0.18047939 7.3902221 12.156325
0.059975546 7.3688898 12.118024
0.30074584 7.3863053 12.156325
0.54100788 7.3726025 12.156325
0.78069657 7.3510861 12.156325
1.0194343 7.3208923 12.154853
1.2648048 7.32797 12.22851
1.4894426 7.2188711 12.120971
1.7238344 7.1674361 12.122443
1.9673911 7.1481228 12.191681
2.1976888 7.0760198 12.184316
2.4142292 6.9643407 12.120971
2.6396365 6.8820682 12.120971
2.8625944 6.7933278 12.122443
3.0818231 6.6957378 12.120971
3.3277962 6.6511631 12.229982
3.5109494 6.4810319 12.120971
3.7200439 6.363318 12.120971
3.9256735 6.2396183 12.122443
4.1261888 6.1077905 12.120971
4.3228087 5.9702482 12.120971
4.5153961 5.8270874 12.122443
4.702673 5.6770253 12.122443
4.8843727 5.5202761 12.120971
5.0614672 5.3583665 12.120971
5.2338343 5.1914091 12.122443
5.4000392 5.0182991 12.122443
5.5564671 4.8363419 12.113605
5.7151108 4.6563134 12.122443
5.8636441 4.4678216 12.122443
6.0059628 4.2745948 12.122443
6.1964021 4.1130037 12.229982
6.2713618 3.8747606 12.122443
6.4462214 3.6984465 12.221144
6.5093923 3.4580855 12.120971
6.6193066 3.2447693 12.122443
6.7761407 3.0522444 12.221144
6.8164005 2.8072102 12.122443
6.9033237 2.5835376 12.120971
6.9846077 2.3577547 12.122443
7.0988178 2.1415784 12.193154
7.1232142 1.8983071 12.122443
7.1812286 1.6654433 12.122443
7.2316332 1.4308146 12.122443
7.3389053 1.2052675 12.229982
7.3094053 0.95725846 12.122443
7.3357987 0.71874559 12.120971
7.3562007 0.47964558 12.122443
7.3679152 0.23994994 12.122443
7.3718214 0 12.122443
7.0268302 0 12.299819
7.0239615 0.22874844 12.301315
7.0750961 0.46131673 12.410601
7.0563312 0.69136393 12.410601
6.9673352 0.91246009 12.299819
6.9322553 1.1384834 12.296824
6.8915248 1.3635224 12.296824
6.8434911 1.5871164 12.296824
6.7824197 1.8074868 12.286345
6.7257247 2.0290232 12.296824
6.6553063 2.2465944 12.295327
6.580256 2.4626312 12.298322
6.495821 2.6751854 12.296824
6.4053025 2.8852043 12.296824
6.3463941 3.1109881 12.371677
6.2040052 3.29585 12.296824
6.0934391 3.4960415 12.296824
5.9764156 3.6925282 12.296824
5.8530583 3.8851016 12.296824
5.7228017 4.0730619 12.295327
5.587873 4.2576971 12.296824
5.4463258 4.437324 12.296824
5.2983613 4.6116872 12.295327
5.1454453 4.781703 12.295327
4.9876833 4.9472537 12.296824
4.8240094 5.1069794 12.296824
4.6552229 5.2612929 12.296824
4.477684 5.4054203 12.286345
4.3030343 5.5530353 12.296824
4.1200051 5.690155 12.296824
