# .PCD v0.7 - Point Cloud Data file format
VERSION 0.7
FIELDS x y z
SIZE 4 4 4
TYPE F F F
COUNT 1 1 1
WIDTH 1580
HEIGHT 1
VIEWPOINT 0 0 0 1 0 0 0
POINTS 1580
DATA ascii
5.4341321 31.484035 1.3099397
4.979208 31.94206 1.3254484
4.461 32.035904 1.3261534
3.9201171 31.95068 1.3198088
3.3468816 31.514441 1.299366
2.8334789 31.564743 1.299366
2.28158 31.092302 1.2782197
1.7751893 31.12532 1.2782197
1.2480465 30.651968 1.2577796
0.7489602 30.668222 1.2577796
0.24435921 30.02317 1.2309982
-0.24435921 30.02317 1.2309982
-0.71119273 29.121731 1.1943541
-1.1851119 29.106297 1.1943541
-1.6596955 29.100307 1.1950587
-2.1230783 28.932318 1.1894217
-2.5937274 28.893927 1.1894217
-3.063689 28.847881 1.1894217
-3.5307462 28.777134 1.188717
-3.9986827 28.715853 1.188717
-4.4682069 28.663942 1.1894217
-4.9341769 28.587416 1.1894217
-5.3988395 28.503315 1.1894217
-6.0426688 29.286961 1.226065
-6.7134175 30.057085 1.2627133
-12.037749 50.051098 2.1106248
-12.949671 50.231915 2.1268575
-8.2364759 29.925591 1.2725809
-8.4712811 28.929699 1.2359314
-8.9461441 28.804396 1.2366362
-9.4138069 28.654963 1.2366362
-9.8958664 28.546661 1.2387505
-10.682292 29.266979 1.7039219
-10.210126 29.453209 1.7048615
-9.5792284 29.158495 1.6785535
-9.0880613 29.261333 1.6757349
-8.4657469 28.910799 1.6475497
-8.1353598 29.558205 1.6766744
-7.6188564 29.553629 1.6691581
-7.3457055 30.542307 1.7180161
-11.390391 50.996674 2.8577731
-6.3268428 30.664265 1.7123784
-5.5583329 29.345366 1.633458
-5.0828648 29.448877 1.6343975
-4.4626427 28.628246 1.5846111
-3.9984393 28.714104 1.5855503
-3.5284395 28.758335 1.5846111
-3.0616877 28.829035 1.5855503
-2.595104 28.909264 1.5874289
-2.1254621 28.964802 1.5883682
-1.6527435 28.978415 1.5874289
-1.1871326 29.155926 1.5958828
-0.71198606 29.154215 1.5949435
-0.23385514 28.73259 1.5714611
0.23371537 28.715416 1.5705218
0.71408266 29.240067 1.5996401
1.1892288 29.207409 1.5987008
1.6654571 29.20133 1.5996401
2.2147126 30.181067 1.6550657
2.7532887 30.671429 1.6841908
3.3047776 31.117985 1.7114388
3.9217412 31.963915 1.7612416
4.5102234 32.389393 1.7884943
8.0428715 51.595734 2.8558915
8.7909231 50.932461 2.8267252
9.5515537 50.427681 2.806968
10.364146 50.231834 2.8050864
11.101647 49.703918 2.7853291
12.206885 50.754337 2.8549507
13.705655 53.164387 3.0026693
25.643446 93.170341 5.2850409
17.034122 58.172081 3.3150725
17.580662 56.605427 3.2416732
11.848201 36.065083 2.0761418
12.140863 35.02282 2.0272512
12.616193 34.565414 2.5169067
11.922513 34.392941 2.4898853
11.200306 34.092937 2.4546413
10.608234 34.155918 2.446418
10.157057 34.68668 2.4722631
9.7916584 35.576038 2.5239558
9.5328884 36.97818 2.6120756
14.447748 60.071499 4.2261744
13.16075 58.922863 4.1297455
11.838637 57.378242 4.0074487
6.0328498 31.850588 2.2173765
5.4289389 31.453945 2.183321
4.8157701 30.893589 2.1386998
4.3643651 31.341938 2.1645327
3.8390017 31.289551 2.1563129
3.3291941 31.347893 2.1563129
2.761718 30.765331 2.1128681
2.2241569 30.309767 2.0788193
1.7031466 29.862156 2.0459468
1.214761 29.834476 2.0424252
0.72898537 29.850298 2.0424252
0.23058628 28.330959 1.9379549
-0.23463626 28.82856 1.9719929
-0.70384657 28.820923 1.9719929
-1.1679837 28.685629 1.9637766
-1.6347439 28.662817 1.9637766
-2.1010709 28.632412 1.9637766
-2.5668414 28.594419 1.9637766
-3.0192463 28.429407 1.9555604
-3.4815907 28.376495 1.9555604
-4.0021796 28.740965 1.9849045
-4.4721084 28.688969 1.9860784
-4.9355664 28.595465 1.9849045
-5.390779 28.460758 1.9813832
-5.8533196 28.369244 1.9813832
-6.5088387 29.141151 2.0424252
-7.1027112 29.531973 2.0776453
-12.810194 49.690884 3.5100791
-8.228734 29.897461 2.1210871
-8.5840425 29.314783 2.089386
-9.10079 29.302315 2.0987787
-9.5551081 29.085072 2.0940824
-10.049747 28.990562 2.0987787
-10.797582 29.582848 2.5866904
-10.348334 29.8519 2.5951419
-9.5881033 29.185509 2.5233066
-9.0710945 29.206703 2.5120389
-8.6137714 29.416309 2.5176728
-8.1110706 29.469955 2.5106306
-7.638876 29.631283 2.5134475
-7.2558012 30.168499 2.5486593
-11.387841 50.985256 4.2910457
-6.1279216 29.700153 2.4909129
-5.560719 29.35796 2.4542964
-4.8546882 28.126879 2.3444617
-4.4648724 28.642551 2.3810706
-3.9957027 28.694452 2.3796625
-3.5302026 28.772703 2.3810706
-3.028816 28.519516 2.3557258
-2.5642037 28.565037 2.3557258
-2.0976574 28.585894 2.3543177
-1.633064 28.633364 2.3557258
-1.1660861 28.639025 2.3543177
-0.70354187 28.808445 2.3669899
-0.23439515 28.798937 2.365582
0.23439515 28.798937 2.365582
0.70270485 28.77417 2.3641739
1.1772445 28.913074 2.3768463
1.6467295 28.872967 2.3754382
2.1177301 28.859436 2.3768463
2.6776295 29.82859 2.4599295
3.1646044 29.798105 2.4613378
3.7160254 30.287241 2.5064054
4.2203417 30.307657 2.5134475
4.7315865 30.353546 2.5233066
5.2483554 30.40769 2.5345743
5.7394137 30.301386 2.5331659
6.2595882 30.338305 2.5444338
6.8609796 30.717743 2.5852816
7.4843807 31.118896 2.6289496
8.0155983 31.092594 2.6374018
8.6617174 31.470621 2.6810732
9.4716702 32.346062 2.7684236
10.286931 33.121399 2.8487382
10.862164 33.06366 2.8586018
11.443853 33.01215 2.869875
12.141371 33.264515 3.3961341
11.615154 33.506302 3.4010644
10.934532 33.283939 3.3599801
9.822156 31.624937 3.1759431
9.3783131 32.027245 3.2005887
8.8557644 32.175652 3.2005887
8.202569 31.817858 3.151298
7.5353699 31.3309 3.0905101
6.9123821 30.947882 3.0412259
6.3004346 30.536274 2.9903023
5.7834377 30.53381 2.9804466
5.2623692 30.48888 2.9673057
4.6862698 30.062834 2.9180298
4.1868691 30.067282 2.9114599
3.690654 30.080452 2.9065325
3.1860781 30.000303 2.893393
2.6973422 30.048189 2.893393
2.1991186 29.968559 2.8818963
1.6310796 28.59857 2.7472353
1.1806899 28.997694 2.783361
0.70561302 28.893253 2.7718661
0.23508576 28.883789 2.7702241
-0.23522511 28.900909 2.7718661
-0.7022689 28.756321 2.7587295
-1.1702415 28.741079 2.7587295
-1.6379039 28.718224 2.7587295
-2.1051323 28.687759 2.7587295
-2.5610876 28.530325 2.7472353
-3.0251355 28.484858 2.7472353
-3.4883816 28.431845 2.7472353
-3.9507036 28.371298 2.7472353
-4.4805446 28.743088 2.7899294
-4.9448886 28.649477 2.7882872
-5.4137468 28.582018 2.7899294
-5.8644185 28.423035 2.783361
-6.326282 28.323814 2.783361
-6.9986901 29.09947 2.8703997
-7.5953913 29.462606 2.9180298
-8.1103039 29.467169 2.9311697
-8.5840521 29.314817 2.929527
-8.9483204 28.811401 2.893393
-9.4160976 28.661934 2.893393
-10.055267 29.006487 2.9443097
-10.505439 28.782442 3.361479
-10.041158 28.965784 3.3633552
-9.563014 29.109138 3.361479
-8.9560537 28.8363 3.3126965
-8.4614706 28.896196 3.3033156
-7.994545 29.046583 3.3051918
-7.5206957 29.172861 3.3051918
-7.0168614 29.175022 3.2920587
-6.5373235 29.268681 3.2901826
-6.0635076 29.38796 3.2920587
-5.4156961 28.59231 3.1926305
-4.9495826 28.676672 3.1926305
-4.4031544 28.246624 3.1363566
-3.9451599 28.331486 3.1382322
-3.4814045 28.374979 3.1363566
-3.0208905 28.444887 3.1382322
-2.5666656 28.592463 3.1494868
-2.1021783 28.647505 3.1513624
-1.6356056 28.677925 3.1513624
-1.169295 28.717833 3.1532383
-0.70128345 28.715969 3.1513624
-0.23475587 28.843258 3.1644928
0.23475587 28.843258 3.1644928
0.70462286 28.852709 3.1663687
1.1790332 28.957005 3.1794994
1.6502091 28.933977 3.1794994
2.1209478 28.903284 3.1794994
2.6033542 29.001171 3.1945064
3.1816072 29.958206 3.3051918
3.6688144 29.902451 3.3051918
4.1715598 29.957336 3.318325
4.6823277 30.037546 3.335211
5.1677189 29.9405 3.3333349
5.6766534 29.970041 3.3464687
6.2674012 30.376169 3.4027586
6.7759156 30.336899 3.4102643
7.2928076 30.322365 3.4215229
7.8195553 30.332142 3.4365346
8.4302464 30.629618 3.4853244
9.1151628 31.128576 3.5585139
9.7677794 31.44986 3.6129408
10.454598 31.823059 3.6748781
10.99361 31.713331 3.6823862
12.146038 33.277302 4.3768878
11.602776 33.470592 4.3768878
11.056438 33.655018 4.3768878
9.8282232 31.644472 4.0940638
9.2734451 31.669117 4.0771809
8.7250128 31.70059 4.0624084
8.079957 31.342243 3.9991004
7.4529138 30.988062 3.9379063
6.9028625 30.905262 3.9125857
6.281579 30.444885 3.8408475
5.7851963 30.543097 3.8408475
5.2669506 30.515425 3.8260787
4.6906538 30.09096 3.7627859
4.1837587 30.044941 3.7480183
3.6900053 30.075165 3.743799
3.190968 30.046349 3.7332509
2.6999555 30.077301 3.7311411
2.0988321 28.601904 3.5434074
1.6543866 29.007225 3.5898094
1.1820179 29.03031 3.5898094
0.70641863 28.926241 3.5750449
0.23549367 28.933908 3.5750449
-0.2343822 28.797346 3.5581715
-0.70350128 28.806782 3.5602806
-1.1709061 28.757402 3.5560622
-1.6407781 28.76862 3.5602806
-2.0975831 28.584879 3.5412984
-2.5641062 28.563951 3.5434074
-3.0287011 28.518433 3.5434074
-3.4924932 28.465355 3.5434074
-3.9553602 28.404737 3.5434074
-4.3987746 28.218529 3.5286438
-4.8575039 28.143192 3.5286438
-5.4102526 28.56357 3.5919187
-5.8710141 28.455004 3.5898094
-6.5306392 29.238754 3.7016072
-7.0016994 29.111982 3.6994975
-7.5129867 29.142958 3.7184834
-7.9772887 28.983885 3.7142644
-8.4527998 28.866585 3.7163739
-8.9215403 28.725176 3.7163739
-9.4305496 28.705925 3.7332509
-9.8909531 28.532488 3.7311411
-10.341469 28.333204 4.1456037
-9.8789206 28.497778 4.1456037
-9.4137545 28.654802 4.1456037
-8.9410391 28.787956 4.143261
-8.4760637 28.946033 4.1456037
-8.003787 29.080162 4.1456037
-7.4996071 29.091059 4.1292052
-7.0211139 29.192705 4.126863
-6.5450153 29.30312 4.126863
-6.0706263 29.422462 4.1292052
-5.5909138 29.517376 4.1292052
-4.9329033 28.580038 3.9863186
-4.4696784 28.673382 3.9886608
-3.9483161 28.354153 3.9347913
-3.4883487 28.431576 3.9371336
-3.0233073 28.467644 3.9347913
-2.5610635 28.530054 3.9371336
-2.0963416 28.567961 3.9371336
-1.6378561 28.717386 3.9535282
-1.1702073 28.74024 3.9535282
-0.70224839 28.75548 3.9535282
-0.23410349 28.763102 3.9535282
0.23451954 28.81422 3.9605546
0.70682472 28.942869 3.9792919
1.1757534 28.876451 3.9722655
1.6514404 28.955566 3.9863186
2.1225302 28.92485 3.9863186
2.6052465 29.022253 4.0050564
3.1312885 29.484402 4.0753274
3.6253183 29.547939 4.0917249
4.1081395 29.501894 4.0940671
4.6639242 29.919485 4.1620021
5.1734962 29.973974 4.1807437
5.6829004 30.003023 4.1971431
6.170506 29.906548 4.1971431
6.7679448 30.301214 4.2674279
7.2921491 30.319626 4.2861714
7.9081035 30.675621 4.3541193
8.4425526 30.674328 4.3728642
9.084446 31.02368 4.443161
9.7753201 31.474138 4.5298657
10.461943 31.845413 4.6072021
11.29725 32.589241 4.7407932
12.01298 32.91275 5.3042212
11.475668 33.103924 5.3042212
10.940629 33.302498 5.306798
10.35673 33.346134 5.2861848
9.4012804 32.105679 5.0646091
8.7239199 31.696621 4.9770188
8.0836544 31.356585 4.9023137
7.5403628 31.35166 4.8817062
6.9214959 30.988686 4.8070064
6.2889752 30.480732 4.7117066
5.7761779 30.495481 4.6988287
5.2038083 30.149593 4.6318669
4.6835537 30.04541 4.603538
4.1845007 30.05027 4.5932364
3.6968908 30.131285 4.5958118
3.137692 29.544697 4.4979548
2.6563783 29.591854 4.4979548
2.1656473 29.512426 4.4799299
1.6849877 29.543768 4.4799299
1.1775877 28.921505 4.3820839
0.7070927 28.953842 4.3846588
0.23557997 28.94451 4.3820839
-0.23474947 28.84247 4.3666358
-0.70335579 28.800825 4.3614864
-1.1699768 28.734583 4.3537621
-1.6404388 28.762669 4.3614864
-2.1009226 28.63039 4.3460383
-2.5666602 28.592402 4.3460383
-3.0299215 28.529924 4.3434634
-3.4939008 28.476828 4.3434634
-3.9405355 28.298277 4.3254414
-4.4006233 28.230389 4.3254414
-4.9463243 28.657795 4.4026823
-5.4089656 28.556776 4.4001074
-5.8765035 28.481607 4.4026823
-6.5284095 29.228773 4.5340066
-7.007278 29.135176 4.5365815
-7.4763355 29.000788 4.5340066
-7.9880147 29.022856 4.5571833
-8.3159571 28.399265 4.4799299
-8.8124247 28.37385 4.4979548
-9.2677889 28.210493 4.4953799
-9.8984537 28.554125 4.5752096
-10.356983 28.37571 4.9959855
-10.038294 28.957523 5.0689797
-9.4119835 28.649412 4.9875636
-8.9444113 28.798815 4.9875636
-8.3313732 28.45191 4.9033461
-7.8671589 28.583752 4.9033461
-7.4008598 28.708017 4.9033461
-6.9286313 28.808176 4.9005389
-6.4366055 28.817751 4.8836961
-6.0661488 29.400763 4.9651051
-5.5867901 29.495605 4.9651051
-5.0193462 29.080868 4.8808894
-4.5479474 29.175484 4.8836961
-4.0701156 29.228836 4.8808894
-3.5958867 29.308058 4.8836961
-3.0233736 28.468269 4.734931
-2.5611134 28.530611 4.7377377
-2.0951405 28.551594 4.734931
-1.6378599 28.717453 4.7573848
-1.1688292 28.706396 4.751771
-0.70225006 28.755548 4.7573848
-0.23396592 28.746201 4.7545776
0.23520897 28.898928 4.779839
0.70515031 28.874306 4.7770319
1.1757333 28.875959 4.779839
1.6513885 28.954657 4.79668
2.159725 29.431723 4.8808894
2.6840231 29.899817 4.9651051
3.1721382 29.869045 4.9679122
3.6702976 29.914539 4.9847565
4.1731167 29.968517 5.0044079
4.6603603 29.896622 5.0044079
5.1723523 29.967346 5.0296745
5.6562858 29.862509 5.0268674
6.2719536 30.398235 5.1335549
6.7622132 30.275551 5.1307473
7.2898388 30.31002 5.1560168
7.9051299 30.664085 5.2374439
8.5744038 31.153383 5.3441486
9.0755787 30.993395 5.3413405
9.7702274 31.457739 5.4480534
10.434661 31.762369 5.5294971
11.45643 33.048431 5.7850885
12.133104 33.241867 6.3504791
11.629269 33.547016 6.3717647
11.086973 33.747959 6.3748055
10.350242 33.325245 6.2622995
9.6588364 32.985237 6.1680431
8.8329334 32.092701 5.973464
8.2036695 31.822126 5.8974624
7.5340948 31.325598 5.7819471
7.0010571 31.344894 5.7637086
6.3838282 30.940456 5.6694798
5.7879586 30.55768 5.581336
5.2667613 30.514328 5.5570211
4.7511234 30.478876 5.5357461
4.18432 30.048975 5.444572
3.6802239 29.995443 5.4232988
3.1915016 30.051373 5.4232988
2.6913354 29.981276 5.4020262
2.2017355 30.004221 5.3989868
1.7063166 29.91774 5.3777146
1.2191206 29.941549 5.3777146
0.72829431 29.822001 5.353404
0.23451789 28.814018 5.1710887
-0.23465569 28.830948 5.1741271
-0.70390487 28.823309 5.1741271
-1.1729676 28.808033 5.1741271
-1.6340072 28.6499 5.1498203
-2.1001241 28.619509 5.1498203
-2.5656846 28.581533 5.1498203
-3.0305653 28.535986 5.1498203
-3.4802108 28.365248 5.1285529
-4.0628767 29.176849 5.2865515
-4.5346413 29.090122 5.2835131
-5.0104194 29.029144 5.2865515
-5.5736485 29.426222 5.3746758
-6.0553012 29.348186 5.3777146
-6.5321984 29.245735 5.3777146
-7.0073647 29.135536 5.3777146
-7.3876777 28.656883 5.3108611
-7.8486528 28.516512 5.3078222
-8.3117752 28.384983 5.3078222
-8.7777176 28.262102 5.3108611
-9.3951283 28.598106 5.4020262
-9.8538275 28.425394 5.3989868
-10.45691 28.649487 5.9042349
-10.033461 28.943581 5.9303966
-9.5241117 28.990721 5.907505
-8.9407454 28.787012 5.8355632
-8.4709959 28.928726 5.8355632
-7.999002 29.062777 5.8355632
-7.4911556 29.058277 5.8094029
-7.0171828 29.176359 5.8094029
-6.5413508 29.286713 5.8094029
-6.0671988 29.405849 5.8126731
-5.5846133 29.484114 5.8094029
-5.0838518 29.454596 5.7865138
-4.6011453 29.516754 5.7832437
-4.0711741 29.236435 5.7145782
-3.5926976 29.282064 5.7113085
-3.117382 29.353458 5.7145782
-2.6376739 29.38349 5.7113085
-2.0984881 28.597214 5.5511036
-1.6298496 28.577002 5.5412955
-1.169983 28.734734 5.56745
-0.70170152 28.733088 5.5641809
-0.24230592 29.770893 5.7636247
0.24216844 29.754004 5.760355
0.7264412 29.746119 5.760355
1.2105215 29.730354 5.760355
1.701975 29.841616 5.7865138
2.1874804 29.809959 5.7865138
2.6829774 29.888166 5.8094029
3.1744618 29.890924 5.8192129
3.7222862 30.33827 5.9173155
4.2249269 30.340586 5.9303966
4.7390347 30.401323 5.9565582
5.2332478 30.32016 5.9565582
5.7480812 30.347145 5.9794507
6.3436885 30.745911 6.0775638
6.8727593 30.770485 6.1037288
7.4872689 31.130903 6.1985788
8.0267353 31.135794 6.2247458
8.666976 31.489725 6.3228741
9.335083 31.879612 6.4308214
9.9078808 31.900951 6.4668055
10.742275 32.698727 6.6630936
11.439148 32.998573 6.7612448
16.815689 46.071053 10.191451
16.190632 46.705208 10.272068
15.423004 46.946533 10.268562
10.37063 33.390888 7.2656627
9.6457748 32.940636 7.1325769
9.0770178 32.97953 7.1080623
8.2865934 32.143787 6.8979459
7.7465301 32.208874 6.8839393
7.1000257 31.787994 6.7683854
6.5578389 31.783833 6.743875
5.9424186 31.373154 6.6353326
5.3278079 30.868017 6.5092921
4.8220696 30.934002 6.5057912
4.3016539 30.891586 6.4812841
3.7367146 30.455868 6.3762593
3.2280369 30.39539 6.3517547
2.7313585 30.427128 6.3482537
2.2271054 30.349951 6.3237495
1.7318461 30.365362 6.3202491
1.2174867 29.901423 6.2187357
0.72897613 29.84992 6.2047343
0.24260223 29.807301 6.1942334
-0.2415055 29.67255 6.1662312
-0.72445256 29.66469 6.1662312
-1.2065223 29.632137 6.1627312
-1.6858064 29.558125 6.1522303
-2.1617689 29.459574 6.1382298
-2.6425009 29.43726 6.1417298
-3.1195211 29.373598 6.1382298
-3.5828624 29.201904 6.113729
-4.0577064 29.139717 6.113729
-4.6093049 29.569099 6.2187357
-5.0899897 29.490156 6.2187357
-5.5693254 29.4034 6.2187357
-6.0437822 29.292356 6.2152352
-6.5381312 29.272299 6.2327371
-7.0058513 29.129244 6.2257361
-7.5042892 29.109221 6.2467384
-7.9771047 28.983217 6.2467384
-8.4478064 28.849535 6.2467384
-8.911274 28.692122 6.243238
-9.3981438 28.607285 6.2572398
-10.011511 28.880264 6.3517547
-10.622322 29.102676 6.8805737
-10.268255 29.620895 6.9626508
-9.6694126 29.433008 6.8805737
-9.039587 29.105255 6.7686572
-8.4560814 28.87779 6.6828599
-7.9537191 28.898251 6.6567488
-7.4822898 29.023884 6.6567488
-7.0088778 29.141829 6.6567488
-6.5336089 29.25205 6.6567488
-6.0566087 29.354523 6.6567488
-5.6467705 29.812273 6.7388144
-5.1721964 29.966442 6.753736
-4.6630526 29.913893 6.7238932
-4.1847935 30.052374 6.7388144
-3.6337161 29.616385 6.6269073
-3.15117 29.671606 6.6269073
-2.6798019 29.852793 6.6567488
-2.1566606 29.389959 6.5448475
-1.6846895 29.53854 6.5709572
-1.2036686 29.562048 6.5709572
-0.72273874 29.594515 6.574687
-0.24079752 29.585564 6.5709572
0.24189103 29.719917 6.6007972
0.73791039 30.215757 6.7127018
1.2296335 30.199743 6.7127018
1.7229434 30.209267 6.7201629
2.2205765 30.260977 6.7388144
2.7563906 30.705984 6.8469982
3.2575996 30.673754 6.850729
3.7707627 30.733376 6.8768435
4.2705092 30.667927 6.8768435
4.7872348 30.710535 6.9029579
5.3750477 31.141714 7.0186143
5.9031129 31.165638 7.0447311
6.6133032 32.05265 7.2686052
7.1304846 31.924362 7.264874
7.6806026 31.934755 7.2947254
8.2329397 31.935665 7.3245778
9.1529684 33.255486 7.6604428
9.6977768 33.118221 7.664175
10.300352 33.164612 7.7126932
10.838807 32.992561 7.7126932
11.578047 33.399258 7.8507881
12.294792 33.684853 8.4794607
11.909504 34.355415 8.5983171
11.197078 34.083111 8.4834223
10.60107 34.132851 8.4517279
10.011129 34.188332 8.423996
9.3199501 33.862175 8.3051472
9.173234 35.583076 8.6894436
9.086544 37.780441 9.1887035
8.6676512 38.806511 9.4026937
8.00776 38.811153 9.3709908
7.3780899 38.95282 9.3749533
6.8029366 39.414555 9.4581747
7.6605268 49.142956 11.761182
6.8434277 49.144897 11.73343
3.8813341 31.634579 7.536727
3.3641362 31.67691 7.5327663
2.8046651 31.243759 7.417923
2.2859356 31.151661 7.3862433
1.7509266 30.699909 7.2714086
1.2496309 30.69088 7.2634892
0.73846459 30.238451 7.1526217
0.24508643 30.11252 7.1209469
-0.2452227 30.129263 7.1249061
-0.73519433 30.104542 7.1209469
-1.2203393 29.971479 7.0932317
-1.7080222 29.947645 7.0932317
-2.1952527 29.915876 7.0932317
-2.6699257 29.742773 7.0615573
-3.1554623 29.712023 7.0655165
-3.6366267 29.640108 7.0615573
-4.1717086 29.958406 7.1526217
-4.656209 29.869991 7.1486626
-5.230072 30.301758 7.2714086
-5.7194834 30.196161 7.2674489
-6.2136111 30.115465 7.2714086
-6.6190248 29.634474 7.1803379
-7.0965919 29.506529 7.1763787
-7.4839725 29.030411 7.089272
-7.9643941 28.937035 7.0971909
-8.4296408 28.787497 7.0932317
-8.8970966 28.646475 7.0932317
-9.5137482 28.959177 7.2080545
-9.9674025 28.753023 7.1961761
-10.725596 29.385622 7.8498836
-10.404408 30.013655 7.9713502
-9.64361 29.354465 7.7535534
-9.0160255 29.029396 7.6279125
-8.5423203 29.172302 7.6279125
-8.0663528 29.307482 7.6279125
-7.4632678 28.950098 7.5022798
-7.1042285 29.538282 7.6237245
-6.626132 29.666292 7.6279125
-6.1255155 29.688494 7.6069727
-5.7253242 30.226999 7.7200484
-5.3035297 30.727358 7.8247538
-4.7949672 30.760138 7.8121886
-4.2821407 30.751457 7.7912474
-3.7322538 30.41951 7.690732
-3.196085 30.09453 7.5944095
-2.7073061 30.159187 7.598597
-2.2148261 30.182615 7.5944095
-1.7023462 29.848125 7.5022798
-1.2183206 29.921902 7.5148425
-0.73275119 30.004499 7.5315933
-0.24427196 30.012451 7.5315933
0.24440779 30.029139 7.5357809
0.7449742 30.505005 7.657228
1.2420833 30.505512 7.6614156
1.7660153 30.964468 7.7828708
2.3064337 31.430998 7.9085217
2.8266833 31.489038 7.9336529
5.3162708 50.058327 12.63231
6.1914144 50.462749 12.758111
7.0119743 50.355286 12.758111
7.8306766 50.234482 12.758111
8.6473045 50.100368 12.758111
9.2968178 49.082794 12.535864
9.9459343 48.204891 12.351361
10.619972 47.547379 12.225567
9.2633505 38.515575 9.940731
9.7973089 38.003868 9.8485212
10.645081 38.676773 10.066476
13.761563 46.996185 12.288464
14.529652 46.781921 12.292657
15.164028 46.158226 12.192021
16.082998 46.394714 12.322009
16.81101 46.058235 13.018071
16.037281 46.262833 13.000387
15.27694 46.501923 12.995967
14.359966 46.235577 12.854495
13.605489 46.463188 12.854495
12.949033 47.047726 12.956178
12.177367 47.236141 12.951756
11.496448 47.800449 13.05344
10.70236 47.916241 13.035756
9.8335295 47.660099 12.92081
9.0440702 47.748405 12.903126
8.3393068 48.315907 13.018071
7.6646113 49.169159 13.2126
6.9344649 49.798664 13.349655
6.1067524 49.77272 13.314286
5.2975535 49.882084 13.318707
4.4506807 49.58025 13.21702
2.371351 32.315662 8.6032248
1.8156744 31.835167 8.4663143
1.2776304 31.37855 8.3382444
0.7545321 30.896379 8.2057657
0.24760765 30.422289 8.0777111
-0.24733694 30.38903 8.0688801
-0.74235129 30.397604 8.0732956
-1.2187668 29.932859 7.9540801
-1.7039276 29.875853 7.9452496
-2.1887732 29.827576 7.9408345
-2.663578 29.67206 7.9099283
-3.1988823 30.120869 8.042387
-3.6725333 29.93276 8.0070639
-4.2280703 30.363159 8.1395292
-4.7806468 30.66827 8.2410927
-5.361237 31.061699 8.3691568
-5.866117 30.970318 8.3691568
-6.2955031 30.512371 8.2720041
-6.6825566 29.918915 8.1395292
-7.079216 29.434284 8.0379715
-7.5615306 29.331261 8.042387
-8.0379524 29.204296 8.042387
-8.549633 29.197273 8.0777111
-9.0188103 29.038361 8.0732956
-9.6044655 29.235313 8.1704397
-10.079056 29.075109 8.1704397
-12.739486 34.90321 10.410473
-12.16968 35.105946 10.410473
-9.9980059 30.433222 8.9753485
-9.2457352 29.769003 8.7339115
-8.6528616 29.549803 8.6271296
-8.0388298 29.207481 8.4878569
-7.5582194 29.318417 8.4832153
-7.0838776 29.453665 8.4878569
-6.6035228 29.565067 8.4878569
-6.1984239 30.041859 8.5946321
-5.776453 30.496935 8.6967688
-6.2490797 36.205639 10.294339
-4.8547435 31.143606 8.8314114
-4.2809005 30.742548 8.6967688
-3.7335274 30.429892 8.5899897
-3.2394764 30.503107 8.5946321
-2.6966269 30.040222 8.4507198
-2.218219 30.228849 8.4924994
-1.7249478 30.24441 8.4878569
-1.2331061 30.285034 8.4924994
-0.73958993 30.284531 8.4878569
-0.24763052 30.4251 8.5249958
0.24695629 30.34226 8.5017843
0.75496167 30.913969 8.6642704
1.2573731 30.881029 8.6596279
1.7891053 31.369318 8.8035536
2.3346355 31.815319 8.9382029
2.8521829 31.773104 8.9382029
3.3812253 31.837824 8.970705
3.9010186 31.795017 8.9753485
4.4934554 32.268974 9.1285801
5.1431842 32.99398 9.356123
6.9202981 40.094517 11.400062
7.5719981 39.976563 11.400062
10.045012 48.685093 13.928248
10.839744 48.531334 13.932897
22.020756 91.558891 26.38513
23.943218 92.876007 26.873455
13.257445 48.168278 13.997972
13.904523 47.484398 13.863173
14.562411 46.887398 13.756268
11.772593 35.834938 10.568419
12.555255 36.218216 10.740311
13.725867 37.605663 11.808559
13.398689 38.651276 12.066803
12.767789 38.864246 12.066803
11.437814 36.826962 11.374936
10.697625 36.532738 11.22878
10.333858 37.546009 11.486992
23.444872 90.942917 27.703041
13.920749 57.880318 17.56015
12.594885 56.389389 17.043358
10.209323 49.481453 14.903268
6.8292046 36.054962 10.824439
5.8678918 33.997131 10.176609
5.1052217 32.75045 9.7772579
4.4348583 31.848171 9.4850836
3.8997972 31.785063 9.4461298
3.3819163 31.844328 9.4461298
2.8203402 31.418377 9.3049259
2.3001149 31.344889 9.2708435
1.7886707 31.361696 9.265974
1.2725884 31.254717 9.2270231
0.76368797 31.27129 9.2270231
0.25471947 31.296083 9.2318926
-0.25068948 30.80094 9.0858316
-0.752002 30.792778 9.0858316
-1.232972 30.281738 8.9397812
-1.7257034 30.257658 8.9397812
-2.2083151 30.093885 8.900835
-2.6993351 30.070391 8.9057035
-3.1884322 30.02247 8.9057035
-3.6766844 29.966595 8.9057035
-4.2140393 30.262396 9.012805
-4.7060609 30.189796 9.012805
-5.3428144 30.954962 9.265974
-26.58206 128.83508 38.803707
-6.8726563 30.770021 9.3000565
-7.2606559 30.188683 9.1588612
-7.6563087 29.698906 9.0468836
-8.1430817 29.586264 9.0517521
-8.6235781 29.449799 9.0517521
-9.2437582 29.76264 9.1929417
-9.8454685 29.96891 9.3049259
-16.845924 48.595535 15.171368
-17.545057 48.069351 15.857154
-16.754919 48.333012 15.852055
-15.971122 48.614964 15.857154
-15.192347 48.915634 15.872454
-8.9991608 30.732428 9.9233999
-8.3625069 30.383497 9.765481
-7.7478456 30.053978 9.6177578
-7.253788 30.160126 9.6126642
-6.7654948 30.290243 9.6177578
-26.372656 127.82017 40.443783
-24.380575 128.71788 40.59687
-22.290611 129.14636 40.612179
-31.9062 204.68109 64.193466
-4.3304219 31.098179 9.7298222
-3.7636108 30.675083 9.5770082
-3.225626 30.372688 9.4649506
-2.6984942 30.061022 9.3528976
-2.2028203 30.019005 9.3274317
-1.7185895 30.132929 9.3528976
-1.2298954 30.206177 9.3681774
-0.73806757 30.222193 9.3681774
-0.24657932 30.295944 9.3885508
0.2505925 30.789024 9.5413532
0.75130981 30.764435 9.5362597
1.2726924 31.257271 9.6941652
1.7812972 31.232414 9.6941652
2.2894301 31.199282 9.6941652
2.8072443 31.27249 9.7298222
3.3158937 31.222654 9.7298222
3.8376772 31.278757 9.765481
4.3485594 31.22843 9.7705746
4.8740106 31.267208 9.8062334
5.3822999 31.183731 9.8062334
5.9105787 31.205055 9.8418922
6.5206985 31.603823 9.9998159
7.5897841 33.980724 10.789559
9.1802826 38.170193 12.16564
14.487474 56.197071 17.983969
25.177589 91.477745 29.401623
26.182013 89.412422 28.870977
27.780418 89.446144 29.024048
12.674082 38.579006 12.583641
17.644354 50.898769 16.69356
32.193794 88.203461 30.508369
17.170847 49.532841 17.033791
16.362328 49.805767 17.033791
15.398802 49.580372 16.868736
13.079428 44.666668 15.122499
16.377439 59.504154 20.053007
14.645729 56.810944 19.062517
13.542789 56.308823 18.817566
12.413685 55.578129 18.503393
7.8986759 38.282455 12.700727
6.1591802 32.517551 10.753451
5.4731603 31.710154 10.455598
4.8730941 31.26133 10.28009
4.3613515 31.320295 10.274772
3.839015 31.28966 10.242863
3.3274772 31.331726 10.237544
2.8068073 31.267622 10.200317
2.2962956 31.292843 10.195
1.7810472 31.228029 10.163092
1.2718478 31.23653 10.157773
0.76044643 31.138557 10.120547
0.24950847 30.655834 9.9610138
-0.24964167 30.672199 9.9663315
-0.74845928 30.647711 9.9610138
-1.2279037 30.157265 9.8068085
-1.717678 30.116943 9.8014908
-2.2076628 30.084995 9.8014908
-2.6853576 29.914682 9.7589531
-3.1753786 29.899555 9.7695875
-3.7034833 30.185017 9.8812513
-4.1965704 30.136946 9.886569
-4.8151121 30.889368 10.157773
-8.5208664 49.367817 16.277752
-24.311722 128.35437 42.446384
-26.371216 127.81319 42.403767
-28.444559 127.35101 42.398441
-30.279804 125.89874 42.073475
-7.8328166 30.383581 10.195
-8.3306742 30.267841 10.200317
-8.8544369 30.23819 10.237544
-9.4571114 30.449583 10.359865
-10.212043 31.084736 10.631115
-16.891754 48.727741 16.756926
-12.508784 34.271141 12.407337
-11.965314 34.516411 12.423968
-11.157699 33.963245 12.15787
-10.10062 32.521526 11.58138
-8.9700003 30.632843 10.855353
-8.3577814 30.366331 10.711276
-7.8624029 30.498346 10.711276
-7.3649406 30.622282 10.711276
-6.9436679 31.087954 10.833187
-26.076923 126.38684 43.888153
-24.204597 127.78881 44.2323
-21.902071 126.89525 43.793789
-20.175587 129.42818 44.548691
-5.3172035 38.184582 13.11146
-4.5917301 37.424622 12.823146
-3.3519769 31.562416 10.794397
-2.7620413 30.768932 10.506255
-2.233427 30.4361 10.378817
-1.7173157 30.110592 10.256926
-1.2269791 30.134556 10.256926
-0.73631757 30.150536 10.256926
-0.24638899 30.27256 10.295709
0.24652158 30.288851 10.301249
0.73949945 30.280825 10.301249
1.2521653 30.753126 10.467469
1.779471 31.200396 10.628158
2.2882755 31.183546 10.633698
2.8377924 31.612795 10.794397
3.3640223 31.675838 10.833187
3.8355091 31.261086 10.711276
4.3438363 31.194513 10.711276
4.8685803 31.232372 10.750066
5.3790746 31.165045 10.755607
5.9068608 31.185427 10.794397
6.4136825 31.08515 10.794397
6.9436679 31.087954 10.833187
7.6507201 31.810509 11.126903
11.932407 46.285942 16.256012
10.100804 36.699257 12.945123
10.472331 35.763348 12.67345
10.835479 34.887589 12.423968
11.437522 34.815006 12.462776
28.572611 82.423576 29.667856
17.38553 47.632282 18.020889
16.613235 47.924294 18.026661
15.830972 48.188358 18.026661
25.737556 82.868637 30.839293
10.135467 34.612946 12.817994
9.6525297 35.070538 12.927547
9.0601578 35.144455 12.898718
8.6614342 36.012901 13.16396
8.2544861 36.956703 13.458051
6.6028605 32.002037 11.613092
5.8999977 31.149193 11.26726
5.3922019 31.2411 11.26726
4.8629947 31.196541 11.221151
4.3389096 31.15913 11.180807
3.8311586 31.225626 11.180807
3.3104045 31.170969 11.140464
2.8025973 31.220722 11.140464
2.3213441 31.634192 11.273024
1.8052045 31.651594 11.26726
1.2653632 31.077267 11.054015
0.75895619 31.077534 11.048251
0.24931246 30.63175 10.886888
-0.2452215 30.129114 10.708244
-0.73559952 30.121132 10.708244
-1.2257826 30.105167 10.708244
-1.7091782 29.967915 10.667908
-2.1955519 29.919954 10.662146
-2.6837165 29.896402 10.667908
-3.2076552 30.203476 10.794683
-3.8015361 30.98419 11.094357
-4.3568025 31.287624 11.226915
-5.7974291 37.191021 13.377318
-22.187855 128.55101 46.362568
-24.032467 126.88004 45.894943
-25.897558 125.51751 45.548553
-28.202744 126.26836 45.981541
-30.05295 124.95551 45.67556
-7.8251472 30.353832 11.140464
-8.3138752 30.206806 11.134701
-8.8090067 30.083042 11.140464
-9.4177504 30.322851 11.284551
-10.198591 31.043791 11.613092
-11.371944 32.804714 12.33945
-12.714504 34.834766 13.752472
-41.330101 119.22518 46.797276
-11.196002 34.079838 13.303431
-10.78824 34.735493 13.48903
-9.2688189 31.653318 12.231895
-8.418334 30.586334 11.76506
-7.9193659 30.719307 11.76506
-7.4182997 30.844141 11.76506
-6.9117503 30.945053 11.759076
-7.5193796 36.444126 13.800372
-23.820313 125.75996 47.468658
-21.852644 126.60888 47.648491
-20.010513 128.36922 48.182003
-17.688784 127.02895 47.564568
-4.7184243 38.457233 14.369216
-3.9179111 36.891289 13.758459
-2.7872884 31.050184 11.561588
-2.2826974 31.107533 11.567573
-1.7549266 30.770042 11.429936
-1.2387533 30.423729 11.292307
-0.74338329 30.439861 11.292307
-0.24781632 30.447929 11.292307
0.24886687 30.577003 11.340178
0.74692857 30.585033 11.346162
1.2440047 30.552702 11.340178
1.7484951 30.657278 11.388049
2.2815166 31.091438 11.561588
2.7887311 31.066256 11.567573
3.3059549 31.12907 11.609463
3.8632972 31.487572 11.76506
4.3330212 31.116844 11.651354
4.8389349 31.042194 11.651354
5.3655233 31.086533 11.69923
5.8708072 30.995079 11.69923
6.3973608 31.006042 11.741122
7.0876408 31.732544 12.058322
11.80224 49.071884 18.717775
12.175994 47.230816 18.088736
10.260279 37.278675 14.339275
10.661519 36.409435 14.069818
11.535297 37.140831 14.423109
12.51629 38.098701 14.872238
16.091887 46.420357 18.220531
16.642727 45.597176 18.75946
15.777277 45.512802 18.616613
15.034377 45.763577 18.616613
14.001509 45.081429 18.243977
13.234254 45.195408 18.200502
12.718601 46.210499 18.523453
12.24958 47.516258 18.964418
11.854097 49.287502 19.591734
10.577349 47.356544 18.75325
9.7336864 47.176189 18.616613
6.1064396 32.239109 12.681252
5.2968874 30.688871 12.035953
4.8535342 31.135849 12.178653
4.3283811 31.083523 12.129018
3.8238173 31.165791 12.135222
3.3007677 31.080229 12.079383
2.7958741 31.145826 12.085588
2.3096919 31.475401 12.197267
1.7732952 31.09211 12.035953
1.2624035 31.004576 11.992524
0.75757593 31.021015 11.992524
0.25163305 30.91687 11.949095
-0.24758303 30.419266 11.756775
-0.75444055 30.892632 11.942891
-1.2526073 30.763983 11.899463
-1.7531856 30.739519 11.899463
-2.2532995 30.706909 11.899463
-2.7858269 31.033903 12.042157
-3.327894 31.335651 12.178653
-4.6979957 38.29073 14.909505
-6.7743225 48.648632 18.983051
-20.33824 130.4716 51.033405
-21.917688 126.98573 49.802883
-24.149313 127.49693 50.150909
-26.023165 126.12629 49.771809
-7.7301407 34.609123 13.705256
-8.3788242 34.837856 13.848013
-8.1069593 31.446983 12.550941
-8.2982244 30.14994 12.085588
-9.1217384 31.151033 12.544737
-37.701805 121.39058 49.125477
-62.383961 189.89235 77.248169
-41.596176 119.99272 49.081974
-68.119797 186.63229 79.919548
-65.21965 188.13951 80.099701
-39.42461 120.00573 50.812023
-58.95211 189.81136 79.951721
-55.863735 190.77647 79.964584
-33.583363 122.01844 50.908527
-31.500992 122.1927 50.760551
-29.118927 121.07199 50.091442
-27.615053 123.63718 50.959999
-7.3693843 35.717144 14.670278
-6.6413698 35.063286 14.355407
-6.0779171 35.213966 14.374683
-5.6367998 36.160568 14.721687
-17.69932 127.10462 51.622677
-25.745115 209.83401 85.041168
-13.667594 128.69489 52.060177
-11.379402 126.76569 51.198048
-3.514519 47.894222 19.317822
-1.8456014 32.359894 13.038305
-1.2504252 30.71039 12.363855
-0.76247209 31.221504 12.562965
-0.25404987 31.213812 12.556542
0.25456968 31.277679 12.582234
0.75311637 30.838408 12.408814
1.2556218 30.838017 12.415237
1.7874081 31.339558 12.627197
2.2972841 31.306313 12.627197
2.816545 31.376101 12.67216
3.2847221 30.929142 12.511581
3.7993863 30.966669 12.550119
4.3051286 30.91654 12.556542
4.8151636 30.8897 12.575811
5.3336115 30.901642 12.61435
6.0082521 31.720724 12.986915
6.6205831 32.087933 13.179634
10.168628 45.526634 18.764883
10.814879 44.966591 18.604149
11.573296 44.892941 18.649155
12.306725 44.714024 18.655584
13.158667 44.937275 18.835606
13.897847 44.747665 18.848465
14.504639 44.151093 18.69416
15.106194 43.576923 18.552715
15.605247 42.754723 19.034704
14.907263 43.003067 19.034704
14.205328 43.240013 19.034704
13.60334 43.799423 19.180937
13.120873 44.808208 19.526583
12.36027 44.908573 19.480053
11.627657 45.103809 19.480053
10.780465 44.823505 19.280642
9.9489756 44.543213 19.087879
9.2194176 44.683685 19.081232
8.5589104 45.186993 19.234112
5.5414872 32.106022 13.625915
4.9472322 31.736931 13.433311
4.2504148 30.523621 12.888758
3.7878249 30.872438 13.008286
3.2831366 30.914213 13.001646
2.7752533 30.916113 12.981725
2.263531 30.846342 12.935241
1.7819414 31.243708 13.087976
1.2731526 31.268574 13.087976
0.76208824 31.205786 13.054771
0.25405183 31.214056 13.054771
-0.25301799 31.087032 13.001646
-0.75937462 31.094669 13.008286
-1.2621709 30.998863 12.975084
-1.7683793 31.005919 12.988365
-2.3320937 31.780682 13.32705
-3.1472754 35.060413 14.721922
-5.1439729 48.435959 20.370798
-25.599323 208.64574 87.914131
-17.688166 127.02451 53.636761
-5.6224308 36.06839 15.266691
-6.0547628 35.079815 14.888004
-6.6279097 34.992222 14.894648
-7.1933889 34.864147 14.888004
-7.746068 34.680431 14.86143
-29.592196 123.03976 52.925034
-31.356737 121.63313 52.532589
-33.205788 120.64659 52.333038
-10.057552 34.346867 14.967726
-10.473936 33.723507 14.768424
-11.021464 33.548557 14.768424
-11.566072 33.364716 14.768424
-12.03191 32.964619 15.24251
-11.498925 33.171013 15.24937
-10.952549 33.338783 15.24251
-10.310079 33.19593 15.09846
-9.768384 33.359348 15.09846
-9.2199106 33.498703 15.091601
-8.5827618 33.292629 14.933837
-8.2391338 34.257042 15.304247
-8.0384865 35.989639 16.017694
-25.58931 124.02353 55.00573
-37.027645 195.48842 86.422363
-6.033042 34.953972 15.407143
-5.468163 35.078747 15.420862
-4.8986411 35.178749 15.427722
-4.3234658 35.238148 15.420862
-3.7459872 35.272442 15.407143
-3.3266926 37.059105 16.161766
-3.3716679 45.947514 20.011482
-2.7133129 47.573929 20.697855
-1.4764686 36.262005 15.763863
-0.90724581 37.149658 16.141186
-0.29909974 36.748859 15.962811
0.31002662 38.091389 16.545973
1.1332704 46.404854 20.162481
1.8878075 46.364471 20.155619
2.6431298 46.343376 20.162481
2.473393 33.706242 14.680053
2.9115858 32.434849 14.145092
3.4074602 32.08485 14.014791
3.8869541 31.680384 13.863919
4.4674244 32.082039 14.069654
4.9331007 31.646276 13.911923
5.4502378 31.577345 13.918781
5.9840665 31.593035 13.966785
6.4975123 31.491447 13.966785
7.2157416 32.306072 14.378272
8.5345831 35.485477 15.853045
9.3239632 36.167755 16.223513
12.519138 45.48579 20.49194
13.275614 45.336651 20.519394
14.011798 45.114559 20.519394
14.788658 45.015629 20.581169
15.509065 44.73909 20.567442
16.342039 44.773365 21.481279
15.616245 45.048271 21.488359
14.876024 45.281567 21.481279
14.104396 45.412701 21.431726
13.358932 45.621189 21.424646
12.585411 45.726578 21.375093
11.835533 45.910164 21.368013
10.980172 45.653854 21.162722
10.05415 45.014099 20.78754
7.5716815 36.697617 16.887823
6.818501 35.998455 16.512808
5.4574313 31.619024 14.461257
4.9227099 31.579618 14.404674
4.3907223 31.531218 14.348092
3.9189527 31.941187 14.503695
3.4366477 32.35968 14.666375
2.9094751 32.411335 14.666375
2.4424071 33.283981 15.04127
1.9199831 33.664066 15.196896
1.3858283 34.035881 15.352525
0.84045774 34.414841 15.515234
0.37832585 46.482967 20.950354
-0.37832585 46.482967 20.950354
-1.1463813 46.941715 21.162722
-1.9403313 47.654453 21.495438
-2.1264641 37.284405 16.831217
-3.435261 46.814133 21.155642
-4.1251788 45.954185 20.794619
-4.786375 45.068794 20.426525
-5.4619446 44.51725 20.214169
-5.0380006 36.179531 16.46328
-5.5706124 35.73597 16.300545
-5.9940162 34.727867 15.883115
-6.5584865 34.625702 15.883115
-7.2861691 35.313824 16.251019
-11.105319 49.72036 22.960894
-29.456272 122.47462 56.772778
-8.9424963 34.688042 16.14489
-9.2893133 33.750866 15.776993
-9.7403975 33.263771 15.621351
-10.378313 33.415627 15.769917
-10.930642 33.272099 15.784067
-11.465621 33.074944 15.776993
-12.205587 33.440453 16.632668
-11.654552 33.619953 16.625378
-11.256719 34.264656 16.851337
-10.697503 34.44334 16.851337
-10.135453 34.6129 16.851337
-9.479641 34.442383 16.690979
-8.7152643 33.806606 16.311962
-8.1638412 33.943989 16.311962
-7.9639201 35.655792 17.070017
-9.4164276 45.638535 21.772928
-8.4457541 44.589581 21.204098
-6.1741347 35.771427 16.960676
-5.5358005 35.51265 16.793026
-4.9591808 35.613503 16.800314
-4.4187412 36.014683 16.953388
-4.756464 44.787151 21.043661
-4.024044 44.827549 21.029078
-3.2972813 44.933807 21.050955
-1.9666049 34.48151 16.137041
-1.372726 33.714088 15.765348
-0.79522187 32.562534 15.218788
-0.26141635 32.118896 15.007467
0.26230487 32.228062 15.058475
0.79826802 32.687267 15.277085
1.3632075 33.480316 15.656032
1.9541699 34.263481 16.035006
2.5458643 34.693848 16.253654
3.1116323 34.663349 16.260944
3.7726343 35.523354 16.690979
4.5061378 36.727005 17.288702
6.2440376 44.840481 21.153049
7.0355811 45.133873 21.342657
7.7772555 45.059517 21.364534
8.4457541 44.589581 21.204098
9.1704178 44.446201 21.204098
9.9062614 44.351978 21.233267
10.641464 44.24556 21.262438
11.360237 44.066486 21.262438
12.104994 43.981079 21.313486
12.823655 43.793198 21.320778
13.530147 43.563759 21.313486
14.383586 43.782616 21.532267
15.247698 43.985123 21.751051
15.895489 43.549919 22.43741
15.184523 43.802879 22.43741
14.474374 44.058968 22.444916
13.511531 43.503822 22.047136
12.54452 42.839947 21.604338
9.7884455 35.564362 17.85251
9.0921841 35.268681 17.627449
10.489159 43.612297 21.709408
9.8556395 44.125332 21.882023
9.1361074 44.279907 21.882023
8.477644 44.757946 22.047136
7.7506351 44.905285 22.054642
7.0186868 45.025494 22.054642
6.2677684 45.010902 21.9946
5.5361857 45.122349 22.002106
4.7502303 44.728455 21.769447
3.9799647 44.33651 21.544298
3.2577739 44.395416 21.544298
2.1136148 37.059109 17.965042
1.4905757 36.608475 17.732477
0.87482548 35.822121 17.342384
0.27750653 34.095814 16.502264
-0.2709479 33.289989 16.112247
-0.79309922 32.475616 15.722258
-1.3222289 32.473885 15.729757
-1.8691592 32.772945 15.887249
-2.4613287 33.541836 16.27725
-3.0374446 33.836906 16.442259
-3.6385417 34.260727 16.67478
-5.4908633 44.752949 21.821983
-4.8159132 34.584648 16.899807
-5.4307261 34.838585 17.064833
-5.8020058 33.615406 16.509764
-6.561831 34.643356 17.064833
-7.2877135 35.321312 17.454908
-9.8116951 43.928589 21.784456
-10.721234 44.577232 22.189735
-9.1773129 35.598896 17.792494
-9.6321402 34.99646 17.567434
-10.2005 34.835041 17.567434
-10.766158 34.664394 17.567434
-11.328962 34.484562 17.567434
-11.853228 34.193073 17.514923
-12.367266 33.883415 18.069288
-11.672912 33.672916 17.853333
-11.113662 33.829201 17.837908
-10.451959 33.652748 17.652809
-9.9114618 33.847965 17.668234
-9.4736004 34.420433 17.884184
-9.1042585 35.315521 18.269825
-10.930319 45.446571 23.415783
-10.266369 45.964237 23.593267
-6.6696949 35.21283 17.953598
-5.9778175 34.634014 17.606535
-5.289989 33.935745 17.205505
-4.7347941 34.00211 17.197794
-4.1825905 34.089951 17.205505
-3.7588487 35.393547 17.830194
-3.9643009 44.162014 22.212029
-14.835792 202.17523 101.55251
-2.0407064 35.780773 17.953598
-1.4436278 35.455437 17.776207
-0.8580606 35.135635 17.606535
-0.28592017 35.129555 17.598822
0.29268649 35.960899 18.015299
3.073209 125.84095 63.059139
5.1167212 125.66644 63.005085
7.1615114 125.56651 63.005085
9.1694345 124.95676 62.76572
9.8957109 110.23748 55.445801
4.9477539 46.588352 23.469799
5.6491389 46.042969 23.2383
6.3532162 45.624531 23.076252
6.8458967 43.917034 22.266043
6.0956535 35.316727 17.953598
6.6037951 34.86491 17.776207
7.2388582 35.084522 17.945885
7.933147 35.518013 18.23126
10.526896 43.769207 22.551538
11.237931 43.59206 22.551538
11.856066 43.076649 22.381783
12.585953 42.981438 22.435797
13.283893 42.770882 22.435797
14.247534 43.368484 22.867908
15.123091 43.625668 23.130268
15.873483 43.489628 23.988628
15.16851 43.756691 23.996555
14.454275 43.997791 23.996555
13.595557 43.774364 23.750841
12.756579 43.564133 23.520983
11.924023 43.323555 23.283201
11.190537 43.408218 23.22772
10.482501 43.584618 23.22772
9.7716875 43.749466 23.22772
9.0335569 43.782875 23.164312
8.3225546 43.939144 23.172239
6.1287909 35.508717 18.671185
5.5382304 35.528236 18.631573
4.8980522 35.174519 18.401823
5.375246 43.810616 22.871058
4.8294334 45.474236 23.695356
4.1186996 45.882004 23.869734
3.4049194 46.400646 24.107523
2.6953723 47.259369 24.527626
5.093688 125.10075 64.875694
3.0567527 125.16709 64.875694
1.0162668 124.86353 64.701202
-1.6307108 200.35713 103.82013
-0.89391661 36.603859 18.972246
-1.4522756 35.667824 18.496891
-2.0326471 35.639462 18.496891
-2.6124799 35.601654 18.496891
-3.2627063 36.346302 18.908863
-4.6533532 43.816254 22.831429
-5.3603439 43.689159 22.807652
-4.921248 35.341095 18.488968
-5.3733897 34.470768 18.077019
-5.9337573 34.378738 18.077019
-6.495398 34.292622 18.084942
-7.1206837 34.511768 18.259224
-7.7548084 34.719566 18.433512
-9.9673195 34.038719 18.378057
-10.148204 32.674732 17.728466
-10.678705 32.505222 17.728466
-11.466762 33.078232 18.140394
-12.068513 33.064899 18.852659
-11.533689 33.271301 18.860788
-10.84374 33.007576 18.608753
-10.075435 32.440434 18.194136
-9.5588646 32.643833 18.218523
-9.0463943 32.868267 18.259172
-8.9042835 34.539814 19.104702
-9.6718235 43.302361 23.764629
-7.2291269 35.037357 19.161615
-6.5109687 34.374828 18.738836
-5.8937902 34.147179 18.559975
-5.4049969 34.673531 18.795748
-4.839901 34.756916 18.795748
-4.3696494 35.614567 19.218531
-4.6632881 43.909801 23.650753
-3.8759904 43.178242 23.219656
-3.1415479 42.811546 22.991913
-2.0820363 36.505428 19.584419
-1.4739758 36.200783 19.405539
-0.88417107 36.2048 19.397408
-1.6198834 199.02682 106.60413
1.6235942 199.48274 106.84834
3.0493035 124.86207 66.897217
5.0942583 125.11477 67.068153
7.1266108 124.95459 67.035591
3.2649124 44.492699 23.894775
3.9601722 44.11602 23.723959
4.6761184 44.030613 23.715826
5.3921838 43.948669 23.715826
6.1675615 44.291283 23.951715
6.8900113 44.200031 23.959848
7.5491314 43.737823 23.772764
8.2600498 43.60915 23.772764
8.9657116 43.454052 23.764629
9.6023054 42.991112 23.593815
10.322105 42.917713 23.64262
11.023099 42.75872 23.650753
11.72165 42.588276 23.658888
12.537071 42.814507 23.894775
13.498069 43.460476 24.374699
14.350629 43.682297 24.626865
15.204001 43.85907 24.862768
15.679077 42.957001 25.302631
15.022229 43.334709 25.377701
14.277241 43.458908 25.310972
13.438303 43.268044 25.069078
12.605161 43.047035 24.818846
11.782809 42.810486 24.568619
11.076898 42.967407 24.551937
10.379577 43.15667 24.560278
9.6494541 43.202209 24.493551
8.951067 43.383076 24.510233
8.2184887 43.389725 24.435165
7.513711 43.532604 24.443506
6.801815 43.634243 24.435165
6.078207 43.649597 24.38512
5.3650832 43.727787 24.37678
4.6542087 43.82431 24.38512
3.9389176 43.879246 24.37678
3.2164526 43.832314 24.318396
2.526603 44.300251 24.551937
5.020308 123.29855 68.27977
3.0149267 123.45441 68.329849
1.6088639 197.67291 109.37949
-1.6091095 197.70308 109.39619
-3.0267115 123.93697 68.596939
-8.056304 197.86247 109.57148
-2.0288587 35.573036 19.71517
-2.5745299 35.084488 19.465055
-3.1452577 35.037933 19.465055
-4.5443668 42.790035 23.80962
-5.188859 42.291485 23.57609
-5.7518172 41.305687 23.07568
-6.4930329 41.653381 23.325882
-6.0064454 34.799877 19.540091
-6.4851608 34.238575 19.281645
-6.9502659 33.685806 19.031544
-7.4976478 33.568214 19.031544
-8.2262526 34.203484 19.465055
-11.482802 41.72047 23.943068
-9.7293777 33.226143 19.156593
-9.9337578 31.98427 18.53137
-10.556496 32.133228 18.714764
-11.339668 32.711605 19.156593
-12.046371 33.004238 20.071869
-11.507566 33.195946 20.071869
-10.863046 33.066341 19.883942
-10.190344 32.810413 19.627687
-9.6549397 32.971931 19.627687
-9.2360067 33.557186 19.883942
-10.801704 41.899929 24.719875
-6.9182386 33.530579 19.559355
-6.3715463 33.638744 19.559355
-5.8231654 33.737999 19.559355
-5.3262076 34.168091 19.755814
-4.9900088 35.834888 20.66984
-5.0416889 41.091984 23.651697
-4.4653673 42.046169 24.155867
-3.8820331 43.245556 24.805332
-2.5876606 35.263424 20.200001
-1.9877942 34.853035 19.943737
-1.4244874 34.985348 20.003531
-0.86615998 35.467285 20.268339
-0.36117184 44.375343 25.35227
1.0004205 122.91656 70.223991
4.800571 196.57249 112.33445
7.9806585 196.00464 112.06934
6.9472389 121.80956 69.702339
8.9311991 121.71021 69.719444
10.841495 120.77344 69.27475
4.7828994 45.036068 25.873589
5.378686 43.838657 25.232626
6.0317035 43.315639 24.984795
6.680656 42.856998 24.779696
7.4002509 42.875244 24.856607
8.1556101 43.057758 25.03607
8.9490843 43.373466 25.300995
9.676713 43.324249 25.360817
10.384116 43.175549 25.369364
11.081774 42.98632 25.360817
11.811749 42.91563 25.429186
12.50872 42.717686 25.429186
13.237873 42.622711 25.497555
13.92055 42.373169 25.480463
14.64761 42.254044 25.548832
15.253066 41.789829 26.227274
14.570834 42.03257 26.227274
13.880109 42.250069 26.218525
13.159754 42.371185 26.157276
12.439141 42.480072 26.096029
11.746046 42.676914 26.096029
11.04984 42.86245 26.096029
10.322942 42.921192 26.026031
9.6294174 43.112503 26.043531
8.8964119 43.118179 25.956034
8.1934004 43.257275 25.956034
7.4124918 42.946167 25.693548
6.6484747 42.650551 25.448566
5.9513254 42.738419 25.439817
5.296453 43.168423 25.641052
4.6275811 43.573586 25.83354
4.0610304 45.239571 26.778515
6.9272308 94.401062 55.804371
6.8678575 120.41773 71.108391
4.9425592 121.38904 71.624962
2.9653342 121.42371 71.607445
1.5876948 195.07196 115.0097
-1.5876948 195.07196 115.0097
-2.9874511 122.32935 72.141525
-1.8056154 44.345837 26.166025
-2.022779 35.466442 20.943439
-2.5759125 35.103329 20.75103
-3.1058314 34.598728 20.479914
-3.7046142 34.88287 20.681065
-5.2404275 42.711788 25.369822
-5.8305669 41.871212 24.923616
-6.4404745 41.316216 24.652399
-5.9109011 34.246319 20.488661
-6.4012895 33.795776 20.27877
-6.8636093 33.265808 20.02516
-7.4041662 33.149681 20.02516
-8.022541 33.356483 20.226297
-10.823847 41.985821 25.562307
-11.71454 42.562443 26.026031
-10.041432 34.291817 21.065884
-10.237469 32.962143 20.348732
-10.666152 32.46701 20.147591
-11.309808 32.625469 20.357477
-11.889209 32.57365 21.086687
-11.362253 32.776756 21.095634
-10.721621 32.635857 20.889847
-10.062434 32.398575 20.630379
-9.6577902 32.981667 20.898792
-9.3227005 33.872169 21.364063
-10.934107 42.413521 26.635519
-9.7776184 40.65382 25.427107
-7.5330768 33.726833 21.015108
