4.559680 30.943878 -3.604794 
4.957814 30.935474 -4.039619 
4.955736 30.938169 -3.963138 
4.878402 30.937765 -3.954470 
4.959715 30.951946 -3.708885 
4.959942 30.958027 -3.620342 
4.879220 30.954412 -3.608213 
2.556679 31.040518 -3.144192 
2.636669 31.032200 -3.144192 
2.556679 31.035625 -3.064201 
2.556679 31.061375 -3.464153 
2.636669 31.051115 -3.464153 
2.556679 31.056118 -3.384163 
2.876639 31.025770 -3.464153 
2.956629 31.018812 -3.464309 
2.876639 31.022408 -3.384163 
2.716659 31.020443 -3.064201 
2.716659 31.015995 -2.984367 
2.636669 31.022846 -2.984211 
3.036619 31.009529 -3.383069 
3.036619 31.006601 -3.302767 
2.956629 31.012501 -3.303860 
3.036619 30.999100 -3.062795 
3.036776 30.996883 -2.982492 
2.956629 31.000671 -2.982024 
3.196287 30.991531 -3.154659 
3.275183 30.986319 -3.167001 
3.195506 30.990131 -3.076231 
3.196599 30.999504 -3.462278 
3.276746 30.993202 -3.463841 
3.196599 30.997358 -3.384007 
3.515779 30.975613 -3.478683 
3.597800 30.970526 -3.485244 
3.516560 30.974319 -3.414628 
3.356267 30.981108 -3.098416 
3.356267 30.980551 -3.018582 
3.274715 30.984402 -3.008896 
3.689664 30.967300 -3.416347 
3.699662 30.968800 -3.335887 
3.608892 30.970673 -3.346980 
3.707006 30.971474 -3.095916 
3.695817 30.971315 -3.015926 
3.609986 30.972809 -3.025143 
2.558085 30.993982 -2.504270 
2.638075 30.988476 -2.504270 
2.559178 30.988195 -2.424280 
2.556679 31.018919 -2.824230 
2.636669 31.011990 -2.824230 
2.556679 31.012579 -2.744240 
2.876639 30.997076 -2.822824 
2.956629 30.993761 -2.821418 
2.876639 30.992435 -2.742834 
2.719159 30.979103 -2.424436 
2.719471 30.974661 -2.344290 
2.639481 30.978270 -2.344290 
3.036776 30.987013 -2.742522 
3.036463 30.982986 -2.662844 
2.956473 30.985146 -2.662063 
3.039119 30.971539 -2.422874 
3.039588 30.968079 -2.343196 
2.959441 30.968864 -2.343977 
3.197693 30.971754 -2.504114 
3.276746 30.969660 -2.503958 
3.198066 30.968761 -2.422561 
3.195506 30.984383 -2.836260 
3.275340 30.980743 -2.847040 
3.196287 30.981300 -2.754708 
3.514373 30.972519 -2.853289 
3.593798 30.970739 -2.842509 
3.514373 30.970747 -2.757364 
3.358646 30.964891 -2.422718 
3.358597 30.962082 -2.342727 
3.277105 30.963905 -2.342103 
3.695334 30.967533 -2.740491 
3.706367 30.965652 -2.660813 
3.609709 30.967125 -2.661751 
3.701053 30.959106 -2.419856 
3.691893 30.957033 -2.340349 
3.610735 30.958015 -2.341508 
4.176928 30.969109 -3.004052 
4.176566 30.967844 -3.067326 
4.256610 30.969225 -2.987789 
3.869532 30.969406 -3.015457 
3.877645 30.969458 -3.094354 
3.947840 30.968998 -3.023737 
3.856675 30.966118 -3.324014 
3.841364 30.964399 -3.402442 
3.921415 30.964811 -3.322139 
3.976661 30.958042 -3.444000 
3.978535 30.960968 -3.379164 
3.898232 30.960430 -3.459311 
4.285289 30.948547 -3.431915 
4.276937 30.951809 -3.353698 
4.206321 30.950735 -3.423221 
4.296814 30.962107 -3.124038 
4.313897 30.965656 -3.044516 
4.234020 30.964008 -3.125288 
4.438942 30.963146 -3.112164 
4.514149 30.966434 -3.100392 
4.442396 30.966763 -3.030612 
4.459018 30.948568 -3.431885 
4.543156 30.951010 -3.422308 
4.446291 30.952080 -3.352246 
4.786250 30.961086 -3.428870 
4.866000 30.965429 -3.438307 
4.773908 30.965969 -3.348528 
4.595165 30.975029 -3.031862 
4.607771 30.979454 -2.969369 
4.526471 30.974554 -2.961699 
4.934044 30.977007 -3.370409 
4.923733 30.983488 -3.292792 
4.843825 30.976797 -3.280606 
4.916226 31.001513 -3.064045 
4.928317 31.007036 -2.984992 
4.848163 30.999039 -2.983117 
3.861796 30.960657 -2.513232 
3.930509 30.960995 -2.525498 
3.846992 30.958599 -2.431523 
3.869231 30.967417 -2.841728 
3.948404 30.967419 -2.854383 
3.877681 30.965940 -2.757504 
4.180869 30.968647 -2.861600 
4.261440 30.969112 -2.857443 
4.185324 30.967363 -2.786091 
3.993858 30.958393 -2.454288 
3.991888 30.954620 -2.375521 
3.909112 30.955538 -2.365401 
4.329717 30.968201 -2.774370 
4.321986 30.966936 -2.692883 
4.253350 30.966122 -2.704760 
4.312505 30.959326 -2.453092 
4.314322 30.955334 -2.373143 
4.233963 30.954601 -2.382780 
4.802802 30.977745 -2.375834 
4.797151 30.981998 -2.455694 
4.883520 30.983622 -2.366494 
4.476395 30.959827 -2.373143 
4.476236 30.964010 -2.452935 
4.558734 30.963760 -2.382780 
4.465708 30.971367 -2.693976 
4.460397 30.972534 -2.774838 
4.536497 30.974957 -2.705853 
4.613570 30.982521 -2.838790 
4.607876 30.981159 -2.775624 
4.533652 30.977695 -2.845726 
4.927908 31.009758 -2.823449 
4.916219 31.006863 -2.744381 
4.848876 31.001652 -2.825324 
4.930913 30.996990 -2.513545 
4.944922 30.993313 -2.433398 
4.859647 30.990700 -2.525654 
5.424583 31.557556 -6.817085 
5.447247 31.537470 -6.754176 
5.400184 31.547047 -6.773448 
5.637175 31.553082 -6.882713 
5.659708 31.552013 -6.859851 
5.663866 31.531975 -6.786437 
5.645721 31.519470 -6.760231 
6.104764 31.434006 -6.739132 
6.102632 31.452236 -6.788994 
6.182776 31.425655 -6.754812 
5.779779 31.497343 -6.761176 
5.800862 31.509634 -6.785224 
5.859087 31.478554 -6.747261 
5.802513 31.529917 -6.847776 
5.783853 31.530909 -6.868313 
6.106544 31.458927 -6.878724 
6.119140 31.451902 -6.929086 
6.189044 31.435289 -6.850615 
5.796891 31.524565 -6.928802 
5.826965 31.520178 -6.975643 
5.871486 31.513414 -6.923707 
5.849902 31.516485 -7.165168 
5.838195 31.518877 -7.246747 
5.902638 31.501497 -7.162064 
5.943727 31.495882 -7.300617 
5.955361 31.490326 -7.230267 
5.879017 31.509445 -7.308062 
6.249092 31.439268 -7.305407 
6.265601 31.439207 -7.234717 
6.168314 31.453987 -7.299036 
6.286239 31.425625 -6.990363 
6.279330 31.418785 -6.904471 
6.202592 31.435497 -6.987231 
5.099782 31.373684 -6.344388 
5.163257 31.362114 -6.338266 
5.102278 31.330746 -6.260167 
5.099141 31.510155 -6.606860 
5.158951 31.502594 -6.593450 
5.107021 31.482975 -6.553063 
5.287417 31.499538 -6.618239 
5.319911 31.503086 -6.642931 
5.481078 31.243755 -6.181956 
5.507370 31.276320 -6.254969 
5.556295 31.231718 -6.176486 
5.182100 31.280266 -6.180480 
5.241447 31.312740 -6.262301 
5.259161 31.272421 -6.184622 
5.349612 31.424786 -6.512025 
5.390664 31.418827 -6.510046 
5.458139 31.483929 -6.637150 
5.449451 31.449703 -6.574984 
5.414733 31.493279 -6.651896 
5.631969 31.470779 -6.668447 
5.640887 31.436275 -6.602393 
5.587926 31.470867 -6.648445 
5.648652 31.310421 -6.357748 
5.639549 31.263960 -6.263085 
5.585998 31.309250 -6.339355 
5.776123 31.291367 -6.356428 
5.842508 31.271637 -6.336389 
5.762425 31.246233 -6.261545 
5.765698 31.448778 -6.669943 
5.849380 31.428373 -6.649846 
5.777796 31.414217 -6.602552 
6.100460 31.383030 -6.634599 
6.183825 31.374758 -6.647575 
6.103475 31.349600 -6.571311 
5.904611 31.224869 -6.250657 
5.896150 31.194519 -6.176744 
5.817375 31.198608 -6.172896 
6.265756 31.338533 -6.584467 
6.266037 31.306858 -6.502498 
6.182093 31.309778 -6.501096 
6.246027 31.211643 -6.262076 
6.237976 31.179985 -6.183555 
6.149930 31.184090 -6.182590 
6.741985 31.366035 -6.823392 
6.751979 31.371159 -6.901600 
6.822766 31.359447 -6.822116 
6.427284 31.395802 -6.826134 
6.442173 31.403044 -6.912894 
6.504604 31.388130 -6.827580 
6.434983 31.413483 -7.158396 
6.423017 31.413044 -7.235382 
6.510557 31.402449 -7.153065 
6.566571 31.380192 -7.324192 
6.576426 31.387054 -7.235676 
6.488650 31.395102 -7.318102 
6.876577 31.325724 -7.314525 
6.878093 31.333975 -7.233246 
6.797702 31.337883 -7.322206 
6.888655 31.351418 -6.983447 
6.894227 31.352995 -6.900504 
6.821964 31.361998 -6.983478 
7.354038 31.335810 -6.793277 
7.353904 31.328423 -6.890417 
7.433425 31.333452 -6.804526 
7.034419 31.342983 -6.809864 
7.035748 31.341007 -6.890319 
7.113451 31.341633 -6.800383 
7.036020 31.323360 -7.142945 
7.036734 31.314394 -7.224177 
7.116009 31.315880 -7.142350 
7.198767 31.287403 -7.302925 
7.198298 31.298466 -7.223872 
7.117191 31.295845 -7.302634 
7.530913 31.254080 -7.304778 
7.541380 31.270443 -7.224945 
7.449360 31.262835 -7.303997 
7.544974 31.311550 -6.985910 
7.534194 31.321894 -6.906546 
7.449048 31.315413 -6.985910 
6.423340 31.237808 -6.354685 
6.503757 31.237288 -6.366665 
6.414071 31.206718 -6.275523 
6.419857 31.359364 -6.663554 
6.498807 31.352127 -6.663948 
6.429380 31.329430 -6.584341 
6.741792 31.336025 -6.677558 
6.824134 31.332352 -6.684471 
6.753291 31.313869 -6.614135 
6.562424 31.211309 -6.297574 
6.541636 31.184711 -6.217604 
6.469957 31.180325 -6.208627 
6.894935 31.310986 -6.616117 
6.886346 31.291695 -6.535660 
6.822012 31.290827 -6.546617 
6.864220 31.231871 -6.292064 
6.862763 31.211269 -6.211779 
6.775490 31.203594 -6.222989 
7.354009 31.287907 -6.202249 
7.354120 31.304592 -6.267405 
7.435839 31.296448 -6.186164 
7.033985 31.236824 -6.213126 
7.032655 31.255075 -6.291370 
7.114830 31.252338 -6.224226 
7.033746 31.309464 -6.523842 
7.033346 31.326202 -6.602099 
7.111924 31.322958 -6.521605 
7.194831 31.342419 -6.643609 
7.194618 31.339489 -6.578928 
7.111426 31.342247 -6.659031 
7.535444 31.338255 -6.630329 
7.546536 31.336567 -6.551901 
7.449497 31.339304 -6.622518 
7.538921 31.320900 -6.322554 
7.528066 31.312523 -6.243814 
7.447511 31.321270 -6.323804 
5.277069 31.572521 -6.876143 
5.273415 31.575312 -6.922495 
5.308954 31.564842 -6.851052 
5.071901 31.577816 -6.837241 
5.063734 31.587074 -6.908455 
5.130280 31.580069 -6.867061 
5.062781 31.609842 -7.149595 
5.068994 31.618666 -7.239134 
5.122222 31.607185 -7.157539 
5.249357 31.612114 -7.310295 
5.246220 31.610113 -7.264779 
5.583898 31.570690 -7.339200 
5.556574 31.574650 -7.288485 
5.506800 31.580572 -7.317372 
5.547512 31.567955 -7.106166 
5.566449 31.560371 -7.030318 
5.489591 31.573193 -7.087190 
5.221624 31.607805 -7.200927 
5.196779 31.606426 -7.181038 
5.528120 31.564079 -6.958761 
5.468715 31.573574 -6.960155 
5.448535 31.575462 -7.012835 
5.354122 31.575199 -6.908076 
5.340036 31.566647 -6.866735 
5.802026 31.528845 -7.167605 
5.759762 31.538994 -7.179870 
5.688773 31.543056 -7.014980 
5.660044 31.552214 -7.095184 
5.723343 31.540335 -7.061285 
5.647023 31.561928 -7.242929 
5.604095 31.568748 -7.264066 
5.154759 31.559200 -6.740464 
5.200642 31.561445 -6.760118 
5.206799 31.549351 -6.708193 
5.206372 31.536854 -6.667155 
5.193579 31.522287 -6.633825 
6.154769 30.886457 -5.459644 
6.149922 30.893314 -5.496663 
6.154845 30.901628 -5.525298 
6.167923 30.911793 -5.547347 
5.125267 31.091244 -5.699280 
5.200734 31.082588 -5.701606 
5.116522 31.062641 -5.616544 
5.126732 31.217197 -6.024512 
5.206641 31.207130 -6.025311 
5.133075 31.183859 -5.945237 
5.454355 31.179577 -6.031680 
5.537908 31.170380 -6.034238 
5.459106 31.147896 -5.954666 
5.272782 31.044445 -5.633816 
5.274542 31.018127 -5.574430 
5.186932 31.028223 -5.559174 
5.593000 31.124743 -5.940198 
5.574195 31.086338 -5.842592 
5.520677 31.102943 -5.864878 
5.567972 30.984524 -5.602645 
5.596652 30.955185 -5.538762 
5.518734 30.975163 -5.561847 
5.811860 30.996468 -5.698934 
5.780013 30.998770 -5.705914 
5.690506 30.937794 -5.538186 
5.678108 30.965975 -5.601961 
5.729480 30.938507 -5.560089 
5.671593 31.072214 -5.842160 
5.684169 31.112377 -5.939519 
5.717002 31.075348 -5.863769 
5.851679 30.994532 -5.696297 
5.901644 30.993176 -5.697325 
5.766937 31.142662 -6.031585 
5.837722 31.135311 -6.027158 
5.795871 31.106441 -5.952175 
6.071752 31.123621 -6.027700 
6.156904 31.121265 -6.031427 
6.085106 31.091171 -5.951340 
6.222444 31.038914 -5.842125 
6.163427 31.050348 -5.863760 
6.230360 31.078676 -5.937516 
6.196677 30.926155 -5.579061 
6.233825 30.941521 -5.613947 
5.994901 30.931831 -5.586348 
5.922009 30.929585 -5.565319 
5.974195 30.959743 -5.637877 
5.474620 30.894670 -4.975437 
5.496699 30.885330 -4.893185 
5.451135 30.892895 -4.897548 
5.636493 30.892323 -5.267351 
5.631537 30.887581 -5.202569 
5.584783 30.895035 -5.199222 
5.629483 30.869247 -4.896091 
5.605134 30.870796 -4.894639 
5.676919 30.873123 -5.057197 
5.706327 30.873711 -5.062555 
5.710498 30.883778 -5.329708 
5.737095 30.876286 -5.327413 
5.780675 30.877192 -5.356350 
5.797403 30.885006 -5.380074 
6.090386 30.863626 -4.876989 
6.095528 30.866503 -4.953785 
6.172278 30.862911 -4.874146 
5.764092 30.868692 -4.899669 
5.786566 30.870901 -4.981397 
5.842477 30.867527 -4.896976 
5.836884 30.883348 -5.235207 
5.845615 30.888773 -5.316039 
5.894436 30.882488 -5.225564 
5.995004 30.878708 -5.344618 
5.974064 30.880215 -5.284952 
5.921749 30.884394 -5.362992 
6.269771 30.884289 -5.398338 
6.257050 30.879131 -5.325718 
6.215298 30.879404 -5.364245 
6.237295 30.870541 -5.079391 
6.241980 30.866447 -4.979520 
6.172812 30.869814 -5.052321 
5.266381 30.928478 -4.942724 
5.278018 30.934826 -5.035875 
5.311265 30.920479 -4.936456 
5.101349 30.949089 -4.932114 
5.100740 30.957502 -5.014511 
5.144519 30.945179 -4.941086 
5.091175 30.988123 -5.272188 
5.087965 30.998638 -5.354695 
5.141105 30.982742 -5.291152 
5.442660 30.939125 -5.431428 
5.451149 30.947117 -5.466228 
5.464793 30.955254 -5.493907 
5.480117 30.965103 -5.521530 
5.217331 30.969616 -5.377168 
5.202577 30.973404 -5.343569 
5.561876 30.909304 -5.330041 
5.510760 30.910385 -5.266176 
5.484856 30.919243 -5.330447 
5.396189 30.916830 -5.077917 
5.376144 30.914509 -5.004779 
5.343740 30.928759 -5.101988 
6.379793 30.930344 -5.582497 
6.386680 30.927240 -5.557392 
6.326074 30.918999 -5.554402 
6.348962 30.925377 -5.577775 
6.304832 31.038609 -5.840758 
6.316891 31.078466 -5.935835 
6.336446 31.049862 -5.861732 
6.435792 30.993229 -5.708827 
6.485578 30.998257 -5.720675 
6.435431 30.959862 -5.625843 
6.394498 31.121750 -6.042778 
6.462218 31.125320 -6.051239 
6.410146 31.091984 -5.961647 
6.690603 31.144354 -6.065566 
6.775606 31.153717 -6.062259 
6.693298 31.115749 -5.986201 
6.560655 30.978598 -5.654222 
6.579149 30.955986 -5.575801 
6.502451 30.942139 -5.563379 
6.864123 31.131056 -5.971808 
6.864120 31.100204 -5.892269 
6.778519 31.093983 -5.902940 
6.874863 31.023670 -5.652976 
6.878890 31.004700 -5.573571 
6.806889 30.993654 -5.586904 
7.348837 31.134174 -5.547493 
7.349173 31.151808 -5.643412 
7.430109 31.151550 -5.548117 
7.027308 31.042938 -5.559171 
7.026066 31.060682 -5.640981 
7.105623 31.068680 -5.561099 
7.028977 31.133673 -5.891575 
7.031421 31.163044 -5.973156 
7.110026 31.159233 -5.904265 
7.195670 31.227310 -6.069209 
7.194041 31.204857 -5.989063 
7.114883 31.211407 -6.066148 
7.528484 31.274740 -6.034933 
7.538941 31.260181 -5.956192 
7.447515 31.264683 -6.046650 
7.545258 31.208282 -5.716222 
7.534203 31.188951 -5.636857 
7.446877 31.190353 -5.728564 
6.362988 30.879490 -5.245566 
6.343531 30.881536 -5.269815 
6.324526 30.882851 -5.289581 
6.299067 30.880726 -5.298383 
6.401377 30.858458 -4.881787 
6.375593 30.858540 -4.875493 
6.444737 30.880665 -5.217360 
6.410691 30.878483 -5.223144 
6.520924 30.876148 -4.964893 
6.549408 30.879574 -4.895823 
6.504058 30.871300 -4.894201 
6.588648 30.889626 -5.062468 
6.637380 30.895969 -5.080084 
6.613602 30.890787 -4.986510 
6.485438 30.902142 -5.394556 
6.550971 30.914742 -5.402366 
6.512980 30.897501 -5.307657 
6.752369 30.950535 -5.429546 
6.818210 30.961946 -5.429389 
6.759679 30.938263 -5.351335 
6.705656 30.909210 -4.998518 
6.723562 30.919670 -4.901026 
6.680602 30.907747 -4.906308 
6.899359 30.965893 -5.337783 
6.911851 30.960947 -5.254669 
6.838494 30.944834 -5.267581 
6.917870 30.956873 -4.996286 
6.911159 30.957911 -4.909240 
6.863205 30.949883 -4.903340 
7.355515 31.089254 -4.900681 
7.373245 31.088356 -4.977019 
7.445923 31.113499 -4.895312 
7.035180 30.990578 -4.918324 
7.047499 30.990963 -5.002402 
7.108387 31.014364 -4.918350 
7.055336 30.999317 -5.243236 
7.048526 31.005901 -5.322893 
7.130918 31.023132 -5.241769 
7.196369 31.065250 -5.393449 
7.205160 31.054802 -5.314552 
7.116099 31.040514 -5.400072 
7.531909 31.145947 -5.363921 
7.543540 31.140419 -5.283775 
7.446557 31.128372 -5.365796 
7.548049 31.132486 -5.045270 
7.542323 31.133776 -4.964597 
7.465431 31.111214 -5.046991 
8.027728 31.298901 -6.800933 
8.038820 31.286722 -6.892485 
8.108187 31.295143 -6.811869 
7.707610 31.321709 -6.804526 
7.716984 31.311485 -6.890298 
7.787757 31.315353 -6.793277 
7.711829 31.269852 -7.144017 
7.703236 31.252495 -7.225570 
7.791663 31.260590 -7.144017 
7.849312 31.212339 -7.303997 
7.861342 31.232136 -7.224945 
7.770885 31.223526 -7.304778 
8.157089 31.164679 -7.304778 
8.158182 31.185978 -7.224945 
8.078660 31.176970 -7.303997 
8.170368 31.252119 -6.985910 
8.177242 31.272827 -6.904359 
8.106313 31.261772 -6.985910 
8.633904 31.255760 -6.793277 
8.633748 31.226387 -6.890298 
8.713219 31.245995 -6.804317 
8.315107 31.280586 -6.811869 
8.315662 31.258514 -6.892485 
8.393934 31.276327 -6.800933 
8.315662 31.186449 -7.144017 
8.316442 31.162762 -7.225413 
8.395809 31.175476 -7.144017 
8.477068 31.117004 -7.305305 
8.477835 31.140419 -7.225257 
8.395980 31.128216 -7.305872 
8.812632 31.075932 -7.308371 
8.820005 31.103161 -7.228026 
8.731841 31.085220 -7.306403 
8.826380 31.182972 -6.986636 
8.815237 31.208448 -6.907120 
8.729206 31.189592 -6.986106 
7.695893 31.312117 -6.322555 
7.759949 31.305326 -6.323804 
7.679782 31.304256 -6.243658 
7.708392 31.330822 -6.630329 
7.786508 31.324451 -6.622518 
7.716985 31.328957 -6.551901 
8.015856 31.307667 -6.643920 
8.094354 31.304489 -6.660169 
8.013824 31.305786 -6.580022 
7.815722 31.303410 -6.267561 
7.813449 31.306347 -6.203662 
7.734795 31.300545 -6.187258 
8.150817 31.308514 -6.603926 
8.135367 31.315363 -6.525028 
8.071021 31.308115 -6.523779 
8.110699 31.334354 -6.295682 
8.117827 31.340115 -6.217299 
8.040945 31.330425 -6.225065 
8.645284 31.386934 -6.203341 
8.640890 31.380577 -6.267673 
8.723762 31.391972 -6.187224 
8.298825 31.359020 -6.216942 
8.286888 31.352362 -6.295593 
8.391043 31.366549 -6.224664 
8.292626 31.331669 -6.525028 
8.300918 31.323788 -6.603925 
8.382092 31.338800 -6.523823 
8.476283 31.313129 -6.643920 
8.475118 31.329586 -6.579911 
8.392351 31.315327 -6.660169 
8.814394 31.289154 -6.631007 
8.825502 31.309002 -6.552899 
8.728994 31.297073 -6.622740 
8.817395 31.362919 -6.322229 
8.808421 31.379951 -6.243438 
8.727907 31.369137 -6.324691 
9.295404 31.233770 -6.790735 
9.294407 31.210426 -6.871751 
9.375454 31.236845 -6.796402 
8.988591 31.229097 -6.806478 
8.996927 31.203039 -6.890598 
9.066965 31.229401 -6.794588 
8.976080 31.122971 -7.139159 
8.961054 31.094801 -7.221232 
9.040503 31.123306 -7.131078 
9.093133 31.061613 -7.284602 
9.098767 31.092178 -7.207129 
9.013855 31.065052 -7.291696 
9.425986 31.040871 -7.302079 
9.425087 31.070686 -7.225740 
9.340992 31.046249 -7.290855 
9.439214 31.170620 -6.976586 
9.444813 31.205896 -6.888273 
9.363442 31.178890 -6.961742 
9.592952 31.171898 -6.969198 
9.668571 31.182091 -6.947310 
9.587875 31.206713 -6.879177 
9.605567 31.043358 -7.302482 
9.690421 31.051277 -7.290861 
9.606471 31.073376 -7.225420 
9.937756 31.074959 -7.278537 
10.017382 31.082573 -7.284154 
9.932581 31.105618 -7.195252 
9.736005 31.224339 -6.864331 
9.731873 31.257198 -6.800042 
9.652152 31.247780 -6.795797 
10.072486 31.122208 -7.207829 
10.059040 31.157475 -7.122469 
9.992922 31.147484 -7.114957 
10.039279 31.270599 -6.880945 
10.045314 31.310186 -6.803189 
9.964395 31.294537 -6.802218 
8.982254 31.354723 -6.311823 
9.055569 31.354418 -6.303285 
8.967843 31.372351 -6.229416 
8.988066 31.279146 -6.632345 
9.067492 31.278351 -6.623484 
8.997054 31.299784 -6.552384 
9.306109 31.275808 -6.635990 
9.387836 31.275475 -6.650531 
9.314926 31.294327 -6.564020 
9.120040 31.376987 -6.245961 
9.117142 31.398785 -6.196898 
9.030408 31.392784 -6.176992 
9.444237 31.298882 -6.588727 
9.424410 31.328245 -6.500329 
9.373386 31.319317 -6.498534 
9.416605 31.420528 -6.258830 
9.432840 31.451097 -6.185938 
9.358953 31.434078 -6.203063 
9.652555 31.467590 -6.228876 
9.679699 31.483690 -6.211448 
9.540636 31.459211 -6.194449 
9.527568 31.430992 -6.266513 
9.570726 31.452276 -6.218293 
9.523042 31.341698 -6.518931 
9.535900 31.313692 -6.607953 
9.573296 31.349930 -6.531286 
9.710985 31.313311 -6.687463 
9.699669 31.337835 -6.637676 
9.632301 31.302013 -6.691026 
10.032443 31.367954 -6.677100 
10.016127 31.385082 -6.634913 
9.953054 31.353365 -6.677121 
10.021032 31.450146 -6.510820 
10.037171 31.475611 -6.467099 
9.946024 31.441149 -6.501347 
9.665365 31.357826 -6.577043 
9.640971 31.357683 -6.558934 
9.978096 31.481968 -6.415694 
9.907377 31.467707 -6.402170 
9.891245 31.451866 -6.445208 
9.760947 31.467007 -6.305593 
9.730411 31.482204 -6.250427 
9.718289 31.451881 -6.328745 
9.837234 31.517357 -6.213979 
9.866936 31.553202 -6.143008 
9.803291 31.533331 -6.155858 
10.072658 31.536907 -6.340663 
10.076038 31.558355 -6.293467 
9.997880 31.519373 -6.324912 
10.086188 31.612516 -6.170946 
10.092283 31.628763 -6.137249 
10.041939 31.609776 -6.132110 
8.012859 31.275864 -5.520934 
8.013193 31.290779 -5.612172 
8.091682 31.292912 -5.530901 
7.708858 31.206768 -5.521401 
7.717207 31.224676 -5.607798 
7.787086 31.224155 -5.511247 
7.695762 31.271194 -5.860579 
7.678673 31.283806 -5.944006 
7.758582 31.284678 -5.861517 
7.814700 31.308079 -6.046962 
7.815723 31.304401 -5.956505 
7.733994 31.300941 -6.036964 
8.133287 31.346035 -6.043101 
8.136782 31.344877 -5.957130 
8.053129 31.335140 -6.054305 
8.164575 31.330952 -5.705754 
8.171117 31.321602 -5.624014 
8.085227 31.317108 -5.704973 
8.672235 31.405878 -5.542600 
8.687783 31.409969 -5.618908 
8.756508 31.421755 -5.540864 
8.328648 31.341909 -5.543777 
8.332525 31.351374 -5.623485 
8.410039 31.357780 -5.542510 
8.324537 31.366526 -5.861584 
8.326780 31.368484 -5.940726 
8.427284 31.378220 -5.861553 
8.504065 31.384520 -6.054281 
8.516088 31.387627 -5.957244 
8.421824 31.377178 -6.042521 
8.806314 31.406048 -6.044339 
8.809765 31.412596 -5.965868 
8.733774 31.402489 -6.050650 
8.829103 31.429489 -5.708877 
8.833236 31.433527 -5.621905 
8.767425 31.421562 -5.704413 
7.709006 31.173149 -5.030174 
7.786818 31.193611 -5.020021 
7.698026 31.174236 -4.950184 
7.707435 31.182028 -5.349236 
7.788177 31.200886 -5.339705 
7.716640 31.177990 -5.270621 
8.024416 31.257627 -5.349453 
8.104426 31.276041 -5.358793 
8.036862 31.255829 -5.268584 
7.868830 31.217545 -4.962728 
7.871238 31.223137 -4.911407 
7.778265 31.199251 -4.895715 
8.194886 31.295355 -5.288426 
8.197723 31.297073 -5.210441 
8.120276 31.276121 -5.200441 
8.195516 31.310623 -4.997511 
8.185905 31.319178 -4.920882 
8.112363 31.295298 -4.924682 
8.377165 31.349369 -5.090090 
8.481693 31.371630 -5.110918 
8.374380 31.356812 -5.016098 
8.340009 31.332233 -5.381544 
8.423400 31.350796 -5.385264 
8.356173 31.334969 -5.303704 
8.693639 31.405914 -5.408358 
8.779736 31.423960 -5.415496 
8.729687 31.412943 -5.353757 
8.757218 31.474579 -4.947693 
8.842108 31.487720 -5.013515 
8.833082 31.500443 -4.928481 
8.442284 31.387768 -4.940001 
8.557822 31.400459 -5.040954 
8.521282 31.409100 -4.944193 
8.811724 31.438740 -5.282048 
8.860998 31.448406 -5.343709 
8.858101 31.456142 -5.260903 
8.885340 31.528194 -4.895499 
8.879858 31.529482 -4.877657 
8.895036 31.496002 -5.064011 
8.902285 31.501368 -5.054305 
9.088204 31.483990 -5.559817 
9.111761 31.483345 -5.644242 
9.144819 31.500107 -5.559345 
8.918318 31.447021 -5.549914 
8.952527 31.451305 -5.555437 
8.931821 31.430540 -5.883549 
8.930367 31.424402 -5.961549 
8.984266 31.440214 -5.882794 
9.098460 31.434832 -6.102427 
9.086914 31.449928 -6.052702 
9.009853 31.428463 -6.088389 
9.424202 31.485825 -6.082490 
9.401178 31.489410 -6.055319 
9.351195 31.470392 -6.096223 
9.390024 31.506943 -5.982390 
9.405577 31.513102 -5.958061 
9.061489 31.457005 -5.972281 
9.045693 31.452785 -5.931670 
8.987931 31.438393 -6.002324 
9.368065 31.506615 -5.909224 
9.314137 31.496838 -5.874922 
9.288890 31.495592 -5.916471 
9.222818 31.495258 -5.712421 
9.180548 31.489927 -5.717456 
9.684811 31.553053 -6.029143 
9.662970 31.516113 -6.101985 
9.692896 31.537180 -6.076092 
9.544360 31.547344 -5.943128 
9.519400 31.533693 -5.970940 
9.594404 31.560064 -5.948485 
9.514626 31.501913 -6.060837 
9.533184 31.494678 -6.089807 
9.565192 31.490704 -6.109216 
9.112672 31.535677 -5.284126 
9.089557 31.508177 -5.381478 
9.144690 31.529070 -5.374340 
8.923155 31.531658 -4.948827 
8.936617 31.522186 -5.027242 
8.978130 31.538933 -5.019975 
8.925740 31.461338 -5.396756 
8.956482 31.467604 -5.392932 
9.292346 31.520855 -5.622647 
9.313936 31.542320 -5.532357 
9.274906 31.531185 -5.543697 
9.477800 31.540176 -5.846704 
9.500745 31.559666 -5.784944 
9.417162 31.527451 -5.806174 
9.505531 31.598089 -5.589310 
9.488470 31.603764 -5.526965 
9.445809 31.586441 -5.524052 
9.939962 31.844652 -5.501681 
9.945715 31.830982 -5.584026 
10.023767 31.887810 -5.512098 
9.612641 31.666309 -5.519613 
9.634143 31.661190 -5.581628 
9.689290 31.707397 -5.510460 
9.640646 31.625189 -5.772381 
9.624611 31.604958 -5.832724 
9.702778 31.657207 -5.780553 
9.698012 31.622042 -5.879893 
9.731224 31.653803 -5.839533 
9.653543 31.605635 -5.880609 
9.764838 31.602573 -5.980907 
9.811389 31.647169 -5.915812 
9.762192 31.618855 -5.938350 
9.983446 31.809082 -5.698045 
9.966246 31.814575 -5.676265 
9.884843 31.618147 -6.013959 
9.874562 31.648422 -5.951573 
9.823156 31.600092 -6.021214 
10.086516 31.678493 -6.024539 
10.081665 31.716583 -5.942082 
10.043694 31.664658 -6.014887 
10.100208 31.847179 -5.689184 
10.108221 31.885971 -5.614311 
10.047080 31.821896 -5.705977 
9.098250 31.616108 -4.832937 
9.083370 31.620152 -4.795839 
9.065066 31.626154 -4.758330 
9.049120 31.640051 -4.714711 
9.337877 31.699564 -4.929224 
9.362057 31.711872 -4.954205 
8.989773 31.566929 -4.890267 
9.046945 31.572878 -4.965140 
9.068562 31.589691 -4.917004 
9.191695 31.588230 -5.181415 
9.223350 31.581150 -5.266775 
9.246454 31.612297 -5.172580 
9.325745 31.588869 -5.353703 
9.316922 31.615185 -5.256826 
9.287834 31.579441 -5.354723 
9.477598 31.638746 -5.375598 
9.487592 31.667171 -5.291008 
9.438071 31.623289 -5.365257 
9.494484 31.754869 -5.015311 
9.485344 31.778231 -4.930030 
9.438078 31.735622 -5.001170 
9.615770 31.809366 -5.022269 
9.693013 31.847355 -5.026080 
9.601517 31.826845 -4.940963 
9.601322 31.701162 -5.369462 
9.681479 31.744915 -5.354907 
9.615829 31.730715 -5.286811 
9.935408 31.880482 -5.345635 
10.022822 31.927059 -5.354457 
9.943645 31.909210 -5.268009 
9.587606 31.832333 -4.887694 
9.599382 31.834808 -4.890472 
10.105437 31.993378 -5.315404 
10.102792 32.014023 -5.267655 
10.015192 31.968958 -5.225028 
10.096596 32.066998 -5.180470 
10.097952 32.089554 -5.157558 
9.730112 31.901615 -4.942001 
9.691787 31.928602 -4.864735 
9.642164 31.875179 -4.883681 
10.045126 32.095074 -5.084366 
9.999843 32.079266 -5.041011 
9.977621 32.038029 -5.066484 
9.910474 32.079399 -4.917158 
9.892930 32.097824 -4.869036 
9.841513 32.062202 -4.850757 
10.012311 32.174351 -4.948298 
10.049417 32.248852 -4.924665 
10.004012 32.192108 -4.916844 
10.118240 32.197296 -5.059089 
10.125531 32.238495 -5.024142 
10.076939 32.180984 -5.023351 
10.137616 32.396797 -4.904300 
10.129467 32.413673 -4.886300 
5.633008 30.872622 -4.716553 
5.605119 30.870735 -4.764382 
5.637238 30.869263 -4.767760 
5.606288 30.892506 -4.492470 
5.551477 30.891117 -4.531059 
5.614264 30.887169 -4.551847 
5.456070 30.888077 -4.680582 
5.440806 30.888664 -4.744484 
5.488408 30.882717 -4.749200 
5.901137 30.865490 -4.764565 
5.897971 30.867584 -4.714544 
5.816864 30.866959 -4.763932 
6.241373 30.857080 -4.760308 
6.235192 30.856926 -4.723953 
6.160860 30.859314 -4.759724 
6.229615 30.870087 -4.626557 
6.230042 30.878166 -4.595140 
6.059372 30.886353 -4.532540 
6.063387 30.880760 -4.569955 
5.742927 30.890816 -4.477055 
5.742428 30.885696 -4.529414 
5.815914 30.888012 -4.492984 
5.742782 30.873056 -4.673604 
5.739199 30.870209 -4.717293 
5.091439 30.922209 -4.402051 
5.143763 30.919186 -4.402186 
5.089643 30.923409 -4.321831 
5.101349 30.933748 -4.754849 
5.144400 30.930538 -4.762664 
5.100778 30.928251 -4.666429 
5.266901 30.915485 -4.754208 
5.310215 30.908344 -4.746021 
5.277680 30.909868 -4.658741 
5.211061 30.914352 -4.358413 
5.233922 30.913733 -4.324536 
5.364590 30.898415 -4.663074 
5.378137 30.897675 -4.598766 
5.333642 30.901943 -4.585518 
5.471247 30.898584 -4.456032 
5.527310 30.899546 -4.421378 
5.454751 30.901649 -4.405331 
5.259104 30.916374 -4.257241 
5.251502 30.919470 -4.216141 
5.175060 30.921982 -4.217731 
5.598802 30.904419 -4.365951 
5.602360 30.907728 -4.341359 
5.606599 30.915724 -4.268548 
5.601143 30.918451 -4.235681 
6.102717 30.946707 -4.236881 
6.116458 30.939394 -4.276931 
6.184447 30.953539 -4.236763 
5.780103 30.925602 -4.241016 
5.784427 30.922234 -4.273878 
5.861160 30.930555 -4.240361 
5.776922 30.910713 -4.346157 
5.770833 30.906128 -4.368644 
5.912766 30.899426 -4.423800 
5.931336 30.905964 -4.390994 
6.248433 30.908792 -4.481158 
6.266295 30.921125 -4.435183 
6.161354 30.904835 -4.465715 
6.291877 30.949732 -4.312962 
6.284037 30.956024 -4.275901 
5.117639 30.951309 -3.807780 
5.196595 30.954620 -3.807762 
5.118781 30.958832 -3.721718 
5.101652 30.930477 -4.115365 
5.177433 30.928452 -4.112103 
5.107265 30.933992 -4.046059 
5.421743 30.927237 -4.118085 
5.507167 30.928930 -4.121454 
5.428475 30.936085 -4.047390 
5.279289 30.967861 -3.720577 
5.279169 30.977764 -3.632327 
5.197881 30.972000 -3.633865 
5.616364 30.942734 -4.049794 
5.626976 30.954252 -3.973211 
5.530208 30.949793 -3.972531 
5.621531 30.994148 -3.718491 
5.611304 31.008488 -3.630645 
5.529595 30.999474 -3.630785 
5.791667 30.996765 -3.805303 
5.870648 31.006420 -3.805646 
5.782377 31.012840 -3.718708 
5.788531 30.940908 -4.128020 
5.867668 30.946888 -4.128643 
5.798674 30.953131 -4.053488 
6.103623 30.968786 -4.124870 
6.182795 30.977396 -4.123232 
6.115688 30.985176 -4.050972 
5.941344 31.035278 -3.718570 
5.929391 31.053371 -3.630819 
5.849244 31.040699 -3.631080 
6.275252 31.008499 -4.046150 
6.278938 31.030045 -3.966568 
6.198547 31.015509 -3.969424 
6.260503 31.095947 -3.714178 
6.248698 31.116560 -3.628393 
6.169201 31.098873 -3.628656 
6.543689 30.893959 -4.706162 
6.513199 30.878601 -4.768273 
6.563241 30.890430 -4.760973 
6.379426 30.891102 -4.587986 
6.368903 30.879091 -4.620822 
6.436734 30.894766 -4.603113 
6.351875 30.856619 -4.726065 
6.351921 30.854931 -4.764847 
6.386550 30.856653 -4.765868 
6.770255 31.063684 -4.232431 
6.773322 31.053654 -4.284357 
6.844392 31.084011 -4.233184 
6.436952 30.989046 -4.230464 
6.454850 30.982271 -4.274293 
6.521148 31.005335 -4.229493 
6.446933 30.952133 -4.410926 
6.431477 30.937828 -4.463039 
6.523923 30.964596 -4.423521 
6.532027 30.933041 -4.533941 
6.562235 30.954523 -4.486017 
6.478374 30.928587 -4.522816 
6.638595 30.925003 -4.667335 
6.667606 30.949312 -4.583213 
6.623345 30.930431 -4.614753 
6.798547 31.040348 -4.351842 
6.787378 31.042513 -4.341435 
6.732450 30.943207 -4.715549 
6.723930 30.955797 -4.629702 
6.690513 30.931190 -4.722012 
6.912432 30.977089 -4.719010 
6.921228 30.994476 -4.628649 
6.865819 30.969910 -4.712287 
6.925656 31.058193 -4.367818 
6.916802 31.080376 -4.292037 
6.863465 31.047478 -4.366901 
7.057308 31.091290 -4.373797 
7.130531 31.115744 -4.373007 
7.048224 31.112686 -4.297223 
7.035988 31.009663 -4.728637 
7.109827 31.034378 -4.728163 
7.049872 31.028664 -4.635336 
7.355548 31.109192 -4.731236 
7.445111 31.133629 -4.731894 
7.372873 31.128567 -4.641047 
7.207558 31.160343 -4.312790 
7.202621 31.181477 -4.248437 
7.118169 31.156462 -4.240870 
7.543454 31.172451 -4.665267 
7.550498 31.190289 -4.593655 
7.465766 31.169750 -4.570912 
7.548716 31.254646 -4.368330 
7.542288 31.279306 -4.285791 
7.461405 31.254738 -4.280470 
6.430431 31.111237 -3.798111 
6.511193 31.131607 -3.798969 
6.421245 31.134144 -3.714594 
6.429836 31.017834 -4.114244 
6.515338 31.035923 -4.111459 
6.441593 31.041294 -4.040168 
6.762920 31.095989 -4.110363 
6.838547 31.116146 -4.112553 
6.764318 31.120514 -4.038043 
6.580449 31.177185 -3.714309 
6.567998 31.200392 -3.628656 
6.489230 31.177807 -3.629534 
6.896736 31.160980 -4.033466 
6.893111 31.189259 -3.950616 
6.827211 31.166916 -3.956770 
6.883222 31.275480 -3.703045 
6.881625 31.303534 -3.623192 
6.801435 31.275679 -3.624092 
7.049655 31.297985 -3.792030 
7.133006 31.320801 -3.804461 
7.045945 31.325857 -3.713910 
7.036043 31.180080 -4.103833 
7.118598 31.206160 -4.102627 
7.041003 31.208931 -4.025865 
7.376433 31.282211 -4.121740 
7.457779 31.307755 -4.125031 
7.379614 31.310253 -4.048370 
7.348447 31.460674 -3.636479 
7.413901 31.465551 -3.688963 
7.406924 31.488472 -3.624181 
7.101008 31.367146 -3.649332 
7.187301 31.365587 -3.732597 
7.163045 31.385569 -3.655242 
7.433947 31.364754 -3.955983 
7.505662 31.364449 -4.020731 
7.478703 31.393230 -3.925613 
7.585199 31.418171 -3.959741 
7.550558 31.419052 -3.926186 
7.584019 31.391951 -4.023413 
7.538277 31.507057 -3.694597 
7.513696 31.498398 -3.691010 
7.483742 31.497932 -3.668612 
7.481122 31.523804 -3.601572 
7.526442 31.540813 -3.604780 
5.072777 31.010887 -3.145699 
5.152923 31.018522 -3.144606 
5.076452 31.017155 -3.065451 
5.104876 30.982853 -3.463999 
5.184637 30.989489 -3.464515 
5.093555 30.990341 -3.383946 
5.424608 31.013247 -3.462172 
5.504286 31.023071 -3.462349 
5.411641 31.022449 -3.382540 
5.236350 31.033693 -3.064201 
5.248848 31.040237 -2.984211 
5.168858 31.031254 -2.984055 
5.571153 31.044388 -3.382507 
5.562248 31.054090 -3.303260 
5.482258 31.041965 -3.303260 
5.556041 31.080189 -3.064201 
5.568314 31.089039 -2.984211 
5.488548 31.075085 -2.984211 
5.712433 31.098349 -3.144293 
5.792574 31.112270 -3.144260 
5.715946 31.107986 -3.064227 
5.743163 31.057625 -3.462583 
5.823153 31.070171 -3.462629 
5.731320 31.069008 -3.382607 
6.063065 31.114464 -3.462629 
6.143131 31.131987 -3.462686 
6.050981 31.127026 -3.383008 
5.878317 31.139555 -3.064151 
5.893441 31.152622 -2.984009 
5.811244 31.134892 -2.984034 
6.209722 31.164566 -3.382864 
6.200775 31.177910 -3.303359 
6.121857 31.157804 -3.303510 
6.197338 31.217817 -3.061803 
6.209399 31.232975 -2.980730 
6.131128 31.211338 -2.982594 
5.423544 31.048336 -2.343040 
5.411067 31.052549 -2.423967 
5.502924 31.062397 -2.343196 
5.102330 31.003843 -2.341443 
5.092042 31.008629 -2.421105 
5.182040 31.013424 -2.341820 
5.072124 31.020935 -2.663000 
5.075799 31.024193 -2.742990 
5.152760 31.030384 -2.663938 
5.248878 31.045162 -2.824230 
5.236396 31.043142 -2.744240 
5.168940 31.035652 -2.824386 
5.568145 31.096321 -2.824255 
5.555630 31.094086 -2.744240 
5.488307 31.081514 -2.824230 
5.561567 31.086193 -2.504270 
5.570360 31.082182 -2.424436 
5.481559 31.070591 -2.504270 
6.075210 31.214596 -2.343936 
6.062880 31.213852 -2.424052 
6.153489 31.239857 -2.344117 
5.747443 31.118111 -2.344290 
5.734636 31.120975 -2.424280 
5.831187 31.141308 -2.344315 
5.714853 31.127064 -2.664199 
5.718163 31.128225 -2.744063 
5.797115 31.146423 -2.664023 
5.895499 31.166710 -2.824285 
5.882545 31.166622 -2.744215 
5.813390 31.147633 -2.823927 
6.208662 31.249582 -2.828398 
6.196713 31.251846 -2.749999 
6.131598 31.228024 -2.825448 
6.204907 31.261539 -2.507008 
6.216689 31.264118 -2.425485 
6.129384 31.236513 -2.505751 
6.362128 31.250435 -3.141677 
6.452935 31.276423 -3.143474 
6.366796 31.265110 -3.059443 
6.382050 31.192835 -3.463068 
6.463719 31.215824 -3.463229 
6.371060 31.207775 -3.383423 
6.718509 31.293364 -3.469728 
6.803980 31.321394 -3.473106 
6.720855 31.311537 -3.394255 
6.545249 31.321472 -3.075241 
6.557685 31.341394 -3.015796 
6.465477 31.309572 -3.000967 
6.866169 31.364546 -3.382454 
6.850132 31.382174 -3.287959 
6.792174 31.356276 -3.307031 
6.853836 31.445663 -3.046463 
6.872872 31.470835 -2.976511 
6.803177 31.437229 -3.006446 
6.934608 31.463327 -3.099720 
6.954319 31.469210 -3.111763 
6.919129 31.459215 -3.088277 
6.897476 31.453728 -3.077370 
7.084186 31.413078 -3.492427 
7.031628 31.420155 -3.408385 
7.023230 31.393761 -3.489675 
7.345576 31.519485 -3.471763 
7.282680 31.524885 -3.381220 
7.279340 31.489773 -3.479610 
7.100273 31.533445 -3.104452 
7.037897 31.527023 -3.027672 
7.039089 31.504137 -3.112648 
6.660096 31.448338 -2.358927 
6.658159 31.442333 -2.446490 
6.726909 31.479774 -2.359799 
6.376044 31.323236 -2.347014 
6.364342 31.319885 -2.429446 
6.447432 31.353527 -2.349768 
6.349675 31.305273 -2.682657 
6.355439 31.301205 -2.763643 
6.430497 31.333754 -2.689480 
6.555069 31.366188 -2.918941 
6.549283 31.374006 -2.876115 
6.468067 31.335850 -2.903375 
6.863640 31.488783 -2.896365 
6.831491 31.484116 -2.864615 
6.791595 31.456673 -2.911233 
6.822073 31.490444 -2.814951 
6.849144 31.500443 -2.808221 
6.534171 31.374527 -2.796644 
6.516060 31.366425 -2.749029 
6.448505 31.336002 -2.818119 
6.842629 31.500038 -2.758319 
6.807568 31.490768 -2.705959 
6.769747 31.473339 -2.757984 
6.766003 31.489044 -2.509961 
6.772844 31.498219 -2.425415 
6.717325 31.465027 -2.521401 
6.958925 31.542269 -2.838155 
6.939208 31.537937 -2.822289 
7.451261 31.746437 -2.973182 
7.492027 31.745071 -3.030264 
7.520989 31.783503 -2.963500 
7.125937 31.588530 -2.958454 
7.183720 31.595276 -3.030165 
7.209313 31.626234 -2.971091 
7.357883 31.593023 -3.278185 
7.410689 31.584164 -3.368237 
7.420446 31.622696 -3.273710 
7.470776 31.646900 -3.269886 
7.504766 31.661608 -3.271766 
7.574257 31.611408 -3.477302 
7.590816 31.642662 -3.411252 
7.539732 31.607906 -3.454077 
7.605086 31.747677 -3.147819 
7.594304 31.781702 -3.048490 
7.564537 31.744049 -3.117017 
6.808250 31.508848 -2.497317 
6.844969 31.524422 -2.486315 
6.937919 31.540461 -2.705307 
6.955296 31.553919 -2.639249 
6.898104 31.530800 -2.640186 
6.948034 31.576323 -2.404454 
6.928075 31.578987 -2.318218 
6.900824 31.565109 -2.302813 
7.379277 31.750469 -2.780969 
7.352794 31.732868 -2.812484 
7.451329 31.777393 -2.839910 
7.053334 31.629774 -2.448515 
7.067029 31.624279 -2.521159 
7.138593 31.660980 -2.543878 
7.058559 31.596123 -2.705959 
7.040116 31.582291 -2.757382 
7.102750 31.614454 -2.759078 
7.081933 31.603588 -2.815440 
7.091907 31.597454 -2.869051 
7.110260 31.614136 -2.841008 
7.388527 31.740339 -2.891748 
7.359250 31.730656 -2.864942 
7.205431 31.713861 -2.466279 
7.191754 31.724960 -2.363058 
7.112741 31.679024 -2.364059 
7.538005 31.837175 -2.797485 
7.531219 31.858385 -2.714233 
7.465885 31.811920 -2.729977 
7.522034 31.925888 -2.447814 
7.525586 31.947802 -2.364899 
7.445037 31.889177 -2.368719 
8.332597 31.415045 -4.704713 
8.185049 31.410576 -4.566953 
8.256359 31.392073 -4.704037 
8.668690 31.503960 -4.727770 
8.503667 31.501625 -4.576065 
8.582789 31.479832 -4.725630 
7.979536 31.505201 -4.089343 
7.816678 31.509327 -3.935939 
7.915014 31.481663 -4.098292 
7.668023 31.466421 -3.918016 
7.755349 31.462397 -4.008168 
7.663607 31.490145 -3.853030 
7.670169 31.361814 -4.183237 
7.729358 31.361004 -4.246458 
7.678282 31.390089 -4.119877 
7.969317 31.361929 -4.495035 
8.071171 31.364672 -4.596323 
8.005691 31.385073 -4.463125 
7.692683 31.281141 -4.437147 
7.738869 31.307747 -4.405997 
7.675308 31.305883 -4.341942 
7.701275 31.198170 -4.768471 
7.787454 31.222748 -4.774331 
7.709005 31.216288 -4.694184 
8.007059 31.298161 -4.753836 
8.067989 31.322451 -4.738316 
7.973989 31.316973 -4.644570 
7.955751 31.739201 -3.524786 
8.001479 31.722105 -3.608515 
8.068342 31.770273 -3.560763 
7.741932 31.684086 -3.455967 
7.764557 31.676533 -3.496980 
7.644442 31.588743 -3.600822 
7.652574 31.576508 -3.633633 
7.744068 31.604061 -3.649560 
8.176596 31.725651 -3.762060 
8.307651 31.750595 -3.826266 
8.242472 31.778004 -3.706465 
7.817342 31.562645 -3.804519 
7.979242 31.564272 -3.941452 
7.915968 31.593681 -3.819884 
8.491632 31.573612 -4.381576 
8.651674 31.574974 -4.529637 
8.556724 31.625780 -4.328665 
8.742869 31.995527 -3.713522 
8.785910 31.966347 -3.832950 
8.806900 32.050087 -3.680329 
8.404470 31.851452 -3.684806 
8.472569 31.827637 -3.802640 
8.506409 31.876926 -3.719444 
8.712847 31.698206 -4.326617 
8.804970 31.645748 -4.529303 
8.798231 31.715321 -4.377907 
8.920593 31.723948 -4.463727 
8.900172 31.736763 -4.427909 
8.904419 31.647446 -4.620568 
8.935134 31.710428 -4.493957 
8.952031 31.701374 -4.517584 
8.989792 31.962566 -4.038781 
9.050550 32.041855 -3.972245 
8.975218 32.068428 -3.833267 
8.947256 31.614031 -4.700019 
9.019592 31.663591 -4.647615 
8.983028 31.686131 -4.573907 
9.273885 31.801933 -4.609818 
9.367024 31.843925 -4.630970 
9.286499 31.902691 -4.458561 
9.360456 32.576797 -3.658831 
9.408376 32.528271 -3.775473 
9.417469 32.660294 -3.641481 
9.039493 32.246120 -3.633348 
9.124481 32.226215 -3.776998 
9.129702 32.322712 -3.648893 
9.358480 32.068920 -4.289907 
9.432771 31.999142 -4.476075 
9.418930 32.125347 -4.287990 
9.598619 32.028561 -4.625368 
9.536711 32.101059 -4.459796 
9.546986 31.977360 -4.640857 
9.818375 32.166031 -4.681175 
9.759230 32.221092 -4.537272 
9.761711 32.136963 -4.651499 
9.573847 32.492577 -3.991518 
9.514582 32.606598 -3.798533 
9.517668 32.486107 -3.944006 
10.048841 32.343033 -4.826787 
10.014066 32.370987 -4.743024 
10.005834 32.298763 -4.800586 
10.120806 32.426834 -4.869786 
10.101889 32.432304 -4.839514 
10.100187 32.581230 -4.734884 
10.101933 32.639118 -4.696194 
10.068521 32.566811 -4.682217 
9.908314 32.377136 -4.576938 
9.834237 32.342262 -4.503393 
9.892812 32.290493 -4.639516 
10.031137 32.712921 -4.528577 
9.947380 32.712746 -4.392716 
9.986706 32.624542 -4.507462 
9.672957 32.699341 -3.956715 
9.587727 32.702526 -3.812526 
9.650082 32.597771 -3.990871 
7.689276 31.781105 -3.144386 
7.737192 31.813271 -3.112123 
7.672401 31.812613 -3.045606 
7.714503 31.684875 -3.425138 
7.682878 31.682938 -3.397528 
7.942202 31.786533 -3.395253 
8.045470 31.819309 -3.419330 
7.963000 31.819134 -3.334505 
7.802797 31.881552 -3.030115 
7.812828 31.916386 -2.976628 
7.725558 31.875904 -2.963595 
8.139334 31.878094 -3.380152 
8.128860 31.910563 -3.302309 
8.053982 31.881111 -3.286406 
8.124641 32.037334 -3.060542 
8.151577 32.094849 -2.982052 
8.067251 32.045517 -2.992126 
7.999874 32.055405 -2.909584 
8.008457 32.054787 -2.923200 
8.017374 32.056232 -2.928910 
8.027387 32.052380 -2.943008 
8.652182 32.036163 -3.527286 
8.672962 32.026833 -3.561961 
8.692512 32.021126 -3.589851 
8.709689 32.014801 -3.626437 
8.641571 32.126862 -3.355467 
8.633869 32.086239 -3.417687 
8.727892 32.128464 -3.439513 
8.286872 32.122101 -3.050490 
8.284130 32.076313 -3.130402 
8.372084 32.119354 -3.127688 
8.277701 31.946198 -3.368356 
8.284660 31.912716 -3.443560 
8.354252 31.952789 -3.419329 
8.436349 32.302998 -2.880474 
8.419827 32.311256 -2.858879 
8.405197 32.313919 -2.843297 
8.393491 32.313198 -2.827691 
8.462690 32.209099 -3.057392 
8.458009 32.249069 -2.985603 
8.375376 32.209297 -2.974638 
8.826041 32.232780 -3.381957 
8.841934 32.295166 -3.314268 
8.748500 32.229759 -3.305807 
8.854304 32.454304 -3.080242 
8.841645 32.489193 -3.001664 
8.755012 32.428246 -3.003266 
7.717636 32.071613 -2.390087 
7.740412 32.058350 -2.484498 
7.756156 32.098648 -2.383014 
7.624402 32.015945 -2.377322 
7.623300 31.993914 -2.458498 
7.644655 32.025269 -2.391253 
7.630288 31.921404 -2.717768 
7.633205 31.896275 -2.800496 
7.667821 31.938061 -2.735893 
7.760421 31.955902 -2.838299 
7.733745 31.955002 -2.799107 
7.690083 31.912029 -2.853623 
8.106754 32.132172 -2.849874 
8.044477 32.125427 -2.779349 
8.028934 32.097645 -2.834888 
7.877833 32.116108 -2.550321 
7.837715 32.122063 -2.464854 
7.820591 32.080322 -2.562480 
8.150884 32.369595 -2.340388 
8.183491 32.394279 -2.335185 
7.927419 32.214722 -2.357150 
7.964581 32.204735 -2.447743 
7.995829 32.260227 -2.354236 
8.111836 32.189629 -2.708853 
8.175933 32.196350 -2.783245 
8.161648 32.222240 -2.701757 
8.257915 32.275524 -2.715365 
8.233713 32.266953 -2.701062 
8.278071 32.281693 -2.728450 
8.298299 32.289131 -2.740077 
8.324724 32.406387 -2.497241 
8.375117 32.451447 -2.459419 
8.307099 32.439072 -2.397747 
8.363455 32.306175 -2.797631 
8.327923 32.297493 -2.764649 
8.600949 32.463234 -2.757649 
8.696134 32.513634 -2.769177 
8.613259 32.498329 -2.685451 
8.441490 32.525928 -2.390377 
8.452484 32.558670 -2.349524 
8.364320 32.512383 -2.323487 
8.797477 32.577133 -2.755791 
8.791702 32.593536 -2.707738 
8.704576 32.564964 -2.650486 
8.779295 32.678791 -2.530820 
8.782982 32.715599 -2.467655 
8.706824 32.676712 -2.443317 
8.437744 32.586910 -2.282614 
8.417399 32.588459 -2.248820 
8.353632 32.542587 -2.257762 
8.717295 32.711887 -2.379279 
8.678172 32.694187 -2.367956 
8.687777 32.720726 -2.327730 
8.694386 32.751045 -2.291593 
8.626270 32.713322 -2.274589 
9.318233 32.811646 -3.200769 
9.306849 32.739521 -3.304376 
9.379078 32.786869 -3.366771 
8.960101 32.796967 -2.602450 
8.957692 32.742096 -2.684348 
9.059895 32.820381 -2.730239 
8.971493 32.628819 -2.908022 
8.974110 32.602917 -2.961152 
9.058241 32.625038 -3.054118 
9.308016 32.670517 -3.439126 
9.312973 32.665833 -3.471875 
9.002559 32.557266 -3.094582 
9.024248 32.530216 -3.177454 
9.081993 32.570820 -3.191390 
9.003843 32.387352 -3.383576 
8.985810 32.322495 -3.456178 
9.068576 32.411964 -3.443713 
9.143522 32.439857 -3.526863 
9.144363 32.451248 -3.515186 
9.135870 32.396091 -3.560569 
9.138885 32.423077 -3.535251 
9.690973 32.928478 -3.900378 
9.683479 33.051411 -3.866786 
9.599541 32.915588 -3.756496 
10.078531 32.955212 -4.506849 
10.071851 33.106781 -4.449386 
9.986506 32.954006 -4.357807 
10.065743 33.579292 -4.310226 
10.068822 33.742744 -4.265469 
9.973731 33.557259 -4.188273 
9.654441 33.211876 -3.728390 
9.636321 33.251160 -3.608553 
9.576557 33.071037 -3.619050 
10.011015 33.938141 -4.114993 
9.960512 33.951344 -4.020975 
9.922623 33.744576 -4.039414 
9.867621 33.958698 -3.746833 
9.847366 33.953327 -3.647823 
9.801933 33.791584 -3.629617 
9.958155 34.287281 -3.729831 
9.975455 34.421455 -3.593111 
9.935882 34.277275 -3.626141 
10.113554 34.291107 -4.123851 
10.122604 34.429749 -4.053020 
10.060763 34.295982 -4.025970 
10.121529 34.795216 -3.723086 
10.120159 34.894272 -3.602644 
10.084894 34.797867 -3.572047 
8.784263 32.759083 -2.380360 
8.862855 32.835510 -2.405354 
8.898889 32.883121 -2.402787 
8.825199 32.797390 -2.401652 
8.917246 32.913803 -2.371012 
8.887459 32.880932 -2.343538 
8.858566 32.842857 -2.340815 
9.404662 33.671974 -2.264464 
9.420344 33.642406 -2.340265 
9.517746 33.823444 -2.287635 
9.003342 33.067406 -2.302274 
9.037797 33.098148 -2.341721 
9.089665 33.206951 -2.272308 
9.039469 33.059151 -2.408257 
9.013308 33.004402 -2.431464 
9.114849 33.140648 -2.433099 
9.487993 33.606430 -2.482751 
9.543425 33.610069 -2.558324 
9.583543 33.788322 -2.421124 
9.075930 32.981144 -2.552238 
9.170349 33.013435 -2.663710 
9.183198 33.118198 -2.567146 
9.395131 32.992683 -3.074603 
9.443720 32.957443 -3.232320 
9.455758 33.101311 -3.051261 
9.589750 33.261677 -3.335301 
9.555010 33.239456 -3.180989 
9.531172 33.085232 -3.355957 
9.799259 33.923580 -3.364318 
9.771236 33.906265 -3.194932 
9.750865 33.767460 -3.340621 
9.705390 33.913223 -2.663328 
9.685385 33.930885 -2.494722 
9.650108 33.759636 -2.650252 
9.793408 34.213001 -2.668908 
9.833006 34.358658 -2.672035 
9.772856 34.216618 -2.508857 
9.887930 34.246735 -3.343034 
9.925274 34.396370 -3.305626 
9.863744 34.235493 -3.179827 
10.034859 34.784428 -3.298496 
10.069055 34.887081 -3.332648 
10.014482 34.778542 -3.173250 
9.861589 34.486397 -2.657230 
9.857513 34.487568 -2.640662 
10.060148 34.953434 -3.275479 
10.029373 34.943199 -3.188232 
10.013737 34.861427 -3.121667 
10.033222 35.016289 -3.087153 
10.062265 35.092422 -3.084803 
10.012428 34.935928 -2.993768 
9.829123 34.475143 -2.517060 
9.803606 34.464642 -2.400474 
9.772783 34.324638 -2.391218 
10.056033 35.150093 -2.959791 
10.011894 35.110680 -2.830533 
9.998849 34.972816 -2.863053 
9.921724 35.083969 -2.486933 
9.911307 35.121296 -2.383794 
9.887205 34.951363 -2.391684 
9.981229 35.425423 -2.542732 
10.001387 35.616703 -2.511178 
9.967153 35.447540 -2.449108 
10.135448 35.503647 -3.003483 
10.150790 35.681358 -2.950811 
10.085636 35.467728 -2.876513 
10.160352 36.203575 -2.728724 
10.147720 36.359650 -2.637706 
10.113298 36.179176 -2.626469 
10.002995 35.828026 -2.384919 
9.992716 35.869305 -2.285145 
9.976823 35.682167 -2.316839 
10.103689 36.512451 -2.498058 
10.086978 36.510075 -2.464554 
10.080722 36.341644 -2.493440 
10.068175 36.516624 -2.355487 
10.066689 36.522945 -2.305765 
10.046007 36.376213 -2.281983 
10.092074 36.781540 -2.348136 
10.091278 36.885468 -2.269145 
