-1.902100 33.351002 1.194500 -0.791002 -0.605809 -0.085505 
-2.620500 35.710999 1.424900 -0.983598 -0.111557 -0.141742 
-3.505500 39.050999 1.751100 0.931162 0.056773 0.360158 
-4.445200 41.855999 2.027700 0.066289 -0.936309 0.344865 
-5.265500 42.916000 2.137600 -0.172092 -0.981819 0.080098 
-5.958500 42.790001 2.134200 0.038503 -0.981500 0.187550 
-6.654200 42.687000 2.134200 -0.142341 -0.966216 0.214862 
-7.489500 43.391998 2.213900 -0.784453 -0.579525 0.220872 
-8.133600 42.942001 2.182400 -0.562681 -0.804077 0.191966 
-9.049400 43.859001 2.285800 -0.852907 -0.255794 -0.455102 
-9.787100 43.819000 2.296800 0.709542 -0.703164 0.045933 
-10.445000 43.431000 2.274900 -0.303662 -0.950287 0.068885 
-11.560000 44.840000 2.431900 0.304320 -0.950945 0.055613 
-12.210000 44.363998 2.403800 0.969349 -0.245561 -0.007889 
-12.738000 43.500000 2.337900 0.984601 -0.112570 -0.133750 
-13.260000 42.695000 2.278500 0.516352 -0.856366 0.004262 
-14.297000 43.520000 2.384100 0.342225 -0.804708 -0.485104 
-14.951000 43.127998 2.368500 -0.471064 -0.858205 0.203919 
-16.070000 44.028999 2.485900 -0.646928 -0.758517 0.078332 
-16.465000 45.111000 1.937700 0.976195 -0.132193 0.171953 
-16.426001 47.382999 2.112500 0.995758 -0.091694 0.007596 
-15.114000 46.006001 1.970800 -0.594663 -0.789855 0.150017 
-13.884000 44.705002 1.838300 -0.644072 -0.734629 -0.213288 
-13.069000 44.632000 1.813200 -0.613387 -0.786332 0.073742 
-12.410000 45.090000 1.834600 0.432401 -0.885348 -0.170847 
-11.753000 45.588001 1.860300 0.605453 -0.792464 -0.073669 
-10.835000 45.050999 1.799200 0.357824 -0.921163 0.153039 
-10.363000 46.396999 1.898100 0.034861 -0.997072 -0.068056 
-9.328900 45.214001 1.785300 -0.635913 -0.680032 -0.364925 
-8.360700 44.140999 1.683400 -0.363790 -0.807308 -0.464661 
-7.714100 44.694000 1.718600 -0.664365 -0.733620 0.142902 
-7.041000 45.168999 1.748200 -0.032841 -0.944930 0.325621 
-6.159200 44.230999 1.661400 -0.720999 -0.632467 0.283099 
-5.352200 43.623001 1.603200 -0.157963 -0.883388 0.441217 
-4.561400 42.951000 1.541000 -0.865804 -0.201647 0.457954 
-3.919600 43.664001 1.594200 -0.486769 -0.817331 0.308264 
-3.117300 42.481998 1.492000 -0.880487 -0.430415 0.198708 
-2.321500 40.705002 1.342100 -0.983929 -0.141144 -0.109368 
-1.477800 36.294998 0.976950 -0.971494 -0.171951 -0.163192 
-0.814390 33.347000 0.733170 -0.583521 -0.785699 -0.205375 
-0.264410 32.486000 0.661720 -0.642964 -0.764693 -0.042921 
0.258810 31.799000 0.605260 -0.664476 -0.747161 -0.014912 
0.772990 31.652000 0.593920 -0.539885 -0.830490 -0.137154 
1.262200 31.000000 0.541710 -0.340568 -0.804691 -0.486298 
1.771500 31.061001 0.548750 -0.042089 -0.902528 -0.428570 
2.245400 30.600000 0.513440 -0.050057 -0.803158 -0.593660 
2.752800 30.666000 0.522290 0.010669 -0.891120 -0.453642 
3.299400 31.068001 0.559480 -0.075754 -0.862759 -0.499908 
3.806500 31.024000 0.560680 -0.162471 -0.902938 -0.397878 
4.255900 30.563000 0.527920 0.033660 -0.989637 -0.139593 
4.757100 30.517000 0.530190 0.190467 -0.954727 -0.228513 
5.248500 30.409000 0.527920 -0.331219 -0.897493 -0.291206 
5.787300 30.554001 0.547570 0.628257 -0.729182 -0.271271 
6.334000 30.698999 0.567940 -0.038494 -0.997267 -0.063064 
6.918500 30.975000 0.600210 0.359045 -0.932321 -0.043187 
7.582200 31.525000 0.656560 0.568841 -0.787950 -0.235699 
8.512700 33.021000 0.794230 0.921224 -0.235845 -0.309392 
9.919900 36.042000 1.063800 -0.956023 0.203897 0.210821 
11.807000 40.320999 1.444200 -0.187516 -0.863991 -0.467286 
12.614000 40.612999 1.486300 0.301388 -0.902194 -0.308565 
13.548000 41.237999 1.558600 0.339726 -0.940385 0.016164 
14.359000 41.422001 1.594200 0.323413 -0.936348 0.136591 
15.107000 41.389000 1.612300 0.194341 -0.980901 0.008035 
15.228000 41.720001 1.033200 -0.035524 -0.995879 -0.083448 
15.427000 44.501999 1.217000 0.197710 -0.976373 -0.087219 
14.468000 44.040001 1.166100 0.131679 -0.841961 0.523224 
13.365000 43.033001 1.077500 -0.892186 -0.279137 0.355087 
12.609000 43.058998 1.064300 0.257625 -0.826937 0.499805 
11.600000 42.145000 0.985310 0.720946 -0.440312 0.535129 
10.629000 41.230000 0.907710 0.743340 -0.668240 -0.030027 
8.734300 36.316002 0.550230 0.865229 -0.478775 -0.148838 
7.497800 33.569000 0.348090 0.650222 -0.758884 -0.036150 
6.613500 32.054001 0.234040 0.280549 -0.939104 -0.198434 
5.919000 31.250000 0.170860 -0.174558 -0.984231 -0.028610 
5.370500 31.115000 0.155150 0.268841 -0.941486 -0.203296 
4.824100 30.947001 0.137730 0.129753 -0.984173 -0.120693 
4.287600 30.791000 0.121790 -0.180956 -0.974015 -0.136194 
3.794600 30.927999 0.126710 -0.356950 -0.931751 0.066531 
3.303000 31.101999 0.134700 -0.103092 -0.994537 -0.016397 
2.803000 31.225000 0.139750 0.039235 -0.952622 -0.301617 
2.309700 31.476000 0.154120 -0.088064 -0.889959 -0.447458 
1.781800 31.240000 0.135710 -0.178116 -0.943771 -0.278516 
1.267700 31.134001 0.126710 -0.417999 -0.863878 -0.281055 
0.768310 31.459999 0.147920 -0.405704 -0.860822 -0.307230 
0.254190 31.232000 0.131690 -0.146735 -0.988703 -0.030597 
-0.255640 31.409000 0.143820 -0.328337 -0.944376 -0.018669 
-0.777630 31.841999 0.174030 -0.551667 -0.832540 0.050404 
-1.326400 32.576000 0.225450 0.999878 0.015269 -0.003400 
-1.922900 33.716000 0.305290 -0.959024 -0.268109 -0.091596 
-2.690300 36.662998 0.509860 -0.985774 -0.145628 -0.083913 
-3.613100 40.249001 0.759520 0.412501 -0.446445 -0.794059 
-4.463800 42.030998 0.886530 -0.243079 -0.918896 0.310714 
-5.189300 42.294998 0.910080 -0.731730 -0.593532 0.335100 
-5.920400 42.515999 0.931580 -0.506300 -0.835965 -0.211717 
-6.772000 43.443001 1.002800 -0.059513 -0.968684 -0.241060 
-7.428600 43.039001 0.982830 -0.303174 -0.845598 -0.439374 
-8.258300 43.599998 1.030700 -0.503279 -0.806373 0.310601 
-9.027800 43.755001 1.051300 -0.412527 -0.506522 0.757138 
-9.576200 42.874001 1.000300 0.250753 -0.818277 0.517248 
-10.483000 43.585999 1.061700 -0.282940 -0.874320 0.394346 
-11.258000 43.671001 1.080200 0.989012 0.078335 -0.125374 
-12.062000 43.823002 1.104400 -0.886438 -0.266771 -0.378235 
-12.956000 44.245998 1.148900 -0.261280 -0.882878 -0.390205 
-13.297000 42.812000 1.061700 0.273479 -0.807514 0.522620 
-13.920000 42.373001 1.046100 -0.202371 -0.937603 0.282748 
-14.966000 43.173000 1.120800 -0.426487 -0.856437 0.290903 
-15.967000 43.747002 1.180800 -0.676269 -0.694585 0.245381 
-16.107000 44.130001 0.566230 0.970136 0.096791 0.222415 
-16.153000 46.597000 0.694200 -0.300764 -0.822701 0.482394 
-14.984000 45.610001 0.622610 0.032291 -0.660664 0.749987 
-13.960000 44.949001 0.571140 -0.306871 -0.809172 0.501069 
-13.189000 45.041000 0.563790 -0.317325 -0.917482 -0.239856 
-12.384000 44.994999 0.549340 0.057870 -0.919398 0.389047 
-11.450000 44.415001 0.505520 -0.277250 -0.909462 0.309857 
-10.843000 45.082001 0.532870 0.693103 -0.337050 0.637186 
-10.221000 45.761002 0.561360 0.044322 -0.807945 0.587589 
-9.107500 44.140999 0.461970 0.539749 -0.801917 0.256126 
-8.574300 45.268002 0.516790 -0.252270 -0.333956 0.908203 
-7.387200 42.799999 0.372370 0.057572 -0.698384 0.713404 
-6.882700 44.153000 0.440960 0.202809 -0.548467 0.811204 
-6.065300 43.556999 0.402150 -0.231758 -0.400198 0.886640 
-5.276100 43.002998 0.366500 -0.515924 -0.552444 0.654697 
-4.435900 41.769001 0.294240 -0.058282 -0.847736 0.527207 
-3.758500 41.868999 0.296090 0.115340 -0.863336 0.491272 
-3.086400 42.061001 0.303520 -0.215606 -0.767512 0.603688 
-2.303200 40.382999 0.209180 -0.599781 -0.783114 0.164301 
-1.497200 36.771999 0.009745 -0.996758 -0.078855 -0.015955 
-0.821590 33.641998 -0.162520 -0.715326 -0.674133 -0.183992 
-0.263940 32.429001 -0.229350 -0.514332 -0.852032 -0.097490 
0.258980 31.819000 -0.262730 -0.575074 -0.812293 -0.097313 
0.771240 31.580999 -0.275310 -0.200664 -0.957679 0.206361 
1.283300 31.518000 -0.277800 -0.217634 -0.956537 0.194096 
1.774200 31.108000 -0.298900 -0.216018 -0.969034 0.119625 
2.283500 31.118999 -0.296510 0.077688 -0.995930 0.045686 
2.804200 31.239000 -0.287650 -0.134608 -0.929982 0.342072 
3.295200 31.028000 -0.296510 -0.298343 -0.942578 0.150126 
3.787500 30.868999 -0.302060 -0.221615 -0.971601 0.082933 
4.281500 30.747000 -0.305190 0.019692 -0.990231 0.138040 
4.803600 30.816000 -0.297310 0.222218 -0.968536 -0.112059 
5.309500 30.761999 -0.295720 0.316424 -0.942155 -0.110542 
5.881800 31.052999 -0.274480 -0.204799 -0.976037 -0.073543 
6.343800 30.746000 -0.286020 0.055335 -0.998449 -0.006134 
6.932900 31.040001 -0.263570 0.408711 -0.910284 -0.065858 
7.668000 31.882999 -0.209580 -0.969713 0.085932 -0.228633 
8.597600 33.349998 -0.119400 -0.979183 0.153752 -0.132518 
10.146000 36.862999 0.088061 0.609760 -0.792240 0.023441 
11.833000 40.409000 0.299800 0.057007 -0.853333 -0.518241 
12.735000 41.002998 0.345170 0.346653 -0.795745 -0.496611 
13.357000 40.657001 0.337500 0.346757 -0.750240 0.562938 
14.332000 41.344002 0.390160 0.258220 -0.940219 -0.222059 
14.904000 40.834000 0.374340 0.258220 -0.940219 -0.222059 
15.117000 41.416000 -0.194020 -0.820182 -0.493257 0.289825 
14.612000 42.152000 -0.172550 -0.123997 -0.984996 -0.120032 
13.819000 42.063000 -0.186420 0.053134 -0.894029 -0.444847 
12.958000 41.720001 -0.210530 0.280185 -0.914083 -0.293171 
12.226000 41.751999 -0.217940 0.183719 -0.847046 0.498759 
11.329000 41.160000 -0.251350 0.282234 -0.834932 0.472475 
10.520000 40.806000 -0.273940 0.787197 -0.592225 0.172015 
8.846700 36.783001 -0.450550 -0.975301 0.220696 -0.008982 
7.481500 33.495998 -0.594500 0.541998 -0.836218 0.083536 
6.644000 32.201000 -0.653600 0.386762 -0.904485 0.179783 
5.920600 31.257999 -0.697320 -0.083054 -0.972036 0.219654 
5.358900 31.048000 -0.709870 0.253932 -0.934904 0.247939 
4.809300 30.851999 -0.721470 0.119090 -0.980287 0.157653 
4.286500 30.782000 -0.727410 -0.092705 -0.993325 0.068644 
3.774400 30.763000 -0.730920 -0.226490 -0.973081 0.042604 
3.277700 30.863001 -0.729170 -0.205625 -0.962081 0.179218 
2.785200 31.027000 -0.724460 0.093509 -0.946254 0.309611 
2.262100 30.827000 -0.734380 -0.024837 -0.940301 0.339437 
1.771300 31.058001 -0.726230 -0.424412 -0.871907 0.244238 
1.276300 31.346001 -0.715410 -0.222005 -0.965906 0.133193 
0.756000 30.955999 -0.732080 -0.099351 -0.919675 0.379905 
0.255700 31.416000 -0.713570 -0.558924 -0.828041 -0.044173 
-0.258670 31.782000 -0.698590 -0.776907 -0.583503 -0.236518 
-0.780870 31.975000 -0.690310 -0.371664 -0.923546 0.094496 
-1.322300 32.476002 -0.669060 -0.916096 -0.384519 0.113636 
-1.934500 33.917999 -0.608780 -0.673711 -0.661459 -0.329523 
-2.691700 36.681000 -0.493690 0.997596 -0.068610 -0.009717 
-3.704800 41.271000 -0.302750 -0.035089 -0.933425 0.357053 
-4.345100 40.912998 -0.314790 -0.678870 -0.441682 0.586561 
-5.094700 41.523998 -0.286410 -0.056843 -0.901953 0.428077 
-5.783900 41.535999 -0.282270 -0.192986 -0.743953 0.639758 
-6.423000 41.203999 -0.291890 -0.239032 -0.703405 0.669391 
-7.237400 41.931999 -0.257050 -0.140598 -0.740492 0.657194 
-7.977400 42.117001 -0.244180 -0.275875 -0.819562 0.502206 
-8.690300 42.118999 -0.238410 -0.301048 -0.435709 0.848250 
-9.522900 42.636002 -0.210530 -0.134745 -0.858060 -0.495558 
-10.275000 42.723000 -0.200060 -0.069384 -0.990223 -0.121016 
-11.034000 42.800999 -0.189470 0.255786 -0.935386 0.244186 
-11.829000 42.977001 -0.174100 0.564324 -0.794744 0.223428 
-12.307000 42.030998 -0.206060 -0.045836 -0.956034 0.289651 
-13.210000 42.533001 -0.175650 -0.262001 -0.911264 -0.317730 
-13.795000 41.992001 -0.189470 -0.464484 -0.784815 0.410269 
-14.892000 42.958000 -0.137550 -0.058403 -0.960922 -0.270589 
-15.467000 42.376999 -0.152080 -0.698761 -0.613076 0.368606 
-15.897000 43.554001 -0.733840 0.968501 0.000041 0.249008 
-15.551000 44.860001 -0.703390 0.707364 -0.612965 0.352010 
-14.379000 43.769001 -0.741880 -0.264028 -0.891490 -0.368150 
-13.531000 43.567001 -0.754170 0.057884 -0.813819 -0.578228 
-12.698000 43.362999 -0.766100 0.289305 -0.477896 -0.829408 
-12.085000 43.907001 -0.756370 0.184586 -0.948107 -0.258883 
-11.250000 43.639999 -0.769300 -0.135232 -0.828101 -0.544024 
-10.640000 44.237999 -0.757460 -0.261163 -0.900137 0.348637 
-9.690500 43.386002 -0.786010 -0.268237 -0.916324 -0.297320 
-8.915200 43.209000 -0.795190 -0.267990 -0.874769 -0.403685 
-8.224500 43.421001 -0.793160 -0.535130 -0.837202 0.112823 
-7.200900 41.720001 -0.843880 0.947186 0.057548 0.315478 
-6.606500 42.382000 -0.828680 -0.539624 -0.836316 -0.096857 
-5.755000 41.328999 -0.860550 -0.178860 -0.981824 0.063491 
-5.102000 41.583000 -0.855960 0.022555 -0.989685 0.141476 
-4.378700 41.230000 -0.867800 0.094356 -0.960550 0.261611 
-3.672000 40.905998 -0.878490 -0.281515 -0.959305 0.021987 
-3.034400 41.351002 -0.867800 -0.213967 -0.900274 0.379110 
-2.297400 40.280998 -0.898270 -0.601396 -0.614663 0.510404 
-1.498200 36.796001 -0.994470 0.929021 -0.370004 -0.004136 
-0.830570 34.009998 -1.071100 -0.828820 -0.406836 -0.384113 
-0.265070 32.568001 -1.110800 -0.201560 -0.970712 -0.130738 
0.259580 31.893000 -1.129200 -0.813553 -0.559543 0.158251 
0.764890 31.320000 -1.144700 -0.447792 -0.889276 0.093111 
1.268600 31.157000 -1.148700 -0.081413 -0.944652 0.317812 
1.773900 31.103001 -1.149500 -0.375394 -0.897301 0.232230 
2.250100 30.663000 -1.160600 -0.158595 -0.985424 0.061548 
2.775000 30.914000 -1.152600 0.175273 -0.983511 -0.044559 
3.291600 30.993999 -1.149100 -0.061593 -0.997427 0.036683 
3.793800 30.921000 -1.149500 -0.234164 -0.958648 0.161746 
4.270900 30.671000 -1.154600 -0.115847 -0.981930 0.149644 
4.769600 30.597000 -1.154600 0.185082 -0.950859 0.248216 
5.303700 30.728001 -1.148700 0.172791 -0.978511 0.112516 
5.816800 30.709999 -1.146700 0.102070 -0.978979 0.176583 
6.312900 30.597000 -1.147100 0.444455 -0.887885 -0.118827 
7.003500 31.356001 -1.122800 0.519168 -0.810489 0.271242 
7.612400 31.650999 -1.111200 0.595936 -0.795441 0.110151 
8.539800 33.125999 -1.066000 -0.965546 0.234366 -0.113104 
9.772400 35.506001 -0.994470 -0.983866 0.178273 -0.015034 
11.220000 38.314999 -0.909810 0.396177 -0.841377 -0.367598 
12.069000 38.858002 -0.888930 0.377565 -0.764955 0.521813 
12.910000 39.297001 -0.870490 0.050611 -0.877261 0.477339 
13.733000 39.616001 -0.855040 0.364217 -0.872844 0.324791 
14.376000 39.387001 -0.855040 0.153524 -0.925252 0.346900 
14.726000 40.345001 -1.413500 -0.950996 0.283004 -0.124557 
14.519000 41.882000 -1.394700 -0.805364 -0.563802 0.183075 
13.662000 41.587002 -1.402200 0.216561 -0.965123 0.147102 
12.584000 40.515999 -1.420700 -0.733947 -0.186983 0.652962 
12.000000 40.981998 -1.416900 0.304543 -0.914105 0.267704 
10.793000 39.215000 -1.444600 -0.897253 -0.438007 -0.055563 
10.091000 39.143002 -1.448000 -0.897253 -0.438007 -0.055563 
8.733200 36.311001 -1.490000 0.878408 -0.471384 -0.078721 
7.506400 33.606998 -1.529800 0.480431 -0.875751 0.047400 
6.507600 31.540001 -1.560300 0.563896 -0.792594 0.231983 
5.863400 30.955999 -1.569800 0.465807 -0.883626 0.047214 
5.298000 30.695000 -1.574700 0.116039 -0.991859 0.052438 
4.779900 30.663000 -1.576300 0.034568 -0.995749 -0.085378 
4.237800 30.433001 -1.580500 -0.198230 -0.958527 -0.204772 
3.777500 30.788000 -1.576500 -0.228590 -0.959633 -0.163865 
3.263900 30.733000 -1.578000 -0.028562 -0.986738 -0.159789 
2.758200 30.726999 -1.578800 0.154278 -0.984075 -0.088290 
2.251700 30.684999 -1.579900 -0.046619 -0.992362 -0.114214 
1.765500 30.955000 -1.576700 -0.360951 -0.931403 -0.046935 
1.256800 30.865999 -1.578200 -0.113944 -0.963691 -0.241486 
0.759060 31.082001 -1.575500 0.043216 -0.991233 -0.124859 
0.252930 31.076000 -1.575700 -0.491115 -0.870223 0.038976 
-0.256300 31.490000 -1.570000 -0.496403 -0.863712 0.087101 
-0.780120 31.944000 -1.563700 -0.483473 -0.865962 0.127919 
-1.317200 32.351002 -1.557900 -0.540291 -0.841419 0.009976 
-1.956700 34.307999 -1.530800 -0.700678 -0.688100 -0.188598 
-2.658300 36.227001 -1.504000 0.987982 -0.066720 0.139427 
-3.534200 39.370998 -1.460200 0.096577 -0.915014 0.391691 
-4.233500 39.862999 -1.452600 0.065436 -0.605534 0.793125 
-4.930300 40.183998 -1.447200 -0.741802 -0.658605 0.126371 
-5.675600 40.758999 -1.438100 0.511377 -0.859348 0.003873 
-6.363400 40.821999 -1.435800 0.278339 -0.920810 0.273196 
-7.077500 41.005001 -1.431800 0.100125 -0.973662 -0.204837 
-7.694900 40.625000 -1.435400 -0.234452 -0.916826 -0.323208 
-8.449000 40.950001 -1.429000 -0.360052 -0.894982 0.263380 
-9.255500 41.438999 -1.420200 -0.461626 -0.851767 0.247779 
-10.436000 43.391998 -1.390600 -0.237777 -0.969376 -0.061414 
-10.721000 41.589001 -1.413500 -0.178779 -0.902880 0.390955 
-11.425000 41.511002 -1.412100 -0.147631 -0.976077 0.159619 
-12.363000 42.221001 -1.399200 -0.481420 -0.851046 0.209654 
-13.363000 43.025002 -1.384800 -0.381397 -0.644767 -0.662429 
-13.527000 41.174999 -1.408200 0.401384 -0.881421 0.248972 
-14.397000 41.532001 -1.399700 -0.188083 -0.880503 0.435131 
-15.394000 42.175999 -1.386900 -0.906514 -0.415259 0.076102 
-15.493000 42.445999 -2.000000 0.947346 0.282964 0.149893 
-15.132000 43.652000 -2.000000 0.358673 -0.672173 0.647717 
-14.473000 44.053001 -2.000000 -0.017168 -0.892741 0.450243 
-13.629000 43.882000 -2.000000 0.149602 -0.950958 0.270736 
-12.995000 44.379002 -2.000000 0.009547 -0.898339 -0.439198 
-12.193000 44.301998 -2.000000 0.041854 -0.999064 0.010895 
-11.299000 43.831001 -2.000000 -0.331631 -0.859655 0.388605 
-10.548000 43.855999 -2.000000 -0.400388 -0.821924 0.405130 
-9.706900 43.459000 -2.000000 -0.236195 -0.880986 0.409970 
-8.855400 42.918999 -2.000000 0.218186 -0.874578 0.433022 
-8.121700 42.879002 -2.000000 -0.417767 -0.850122 0.320567 
-7.277000 42.160999 -2.000000 -0.361169 -0.932001 0.030504 
-6.568200 42.136002 -2.000000 -0.228098 -0.939896 -0.254100 
-5.833800 41.894001 -2.000000 -0.612759 -0.632709 -0.473505 
-5.089000 41.478001 -2.000000 0.006649 -0.997769 -0.066428 
-4.392000 41.355999 -2.000000 0.195863 -0.944439 -0.263958 
-3.715300 41.389000 -2.000000 -0.118463 -0.946907 -0.298887 
-2.988800 40.730000 -2.000000 -0.557869 -0.793541 0.243055 
-2.269400 39.790001 -2.000000 0.579832 -0.720803 0.379786 
-1.506000 36.987000 -2.000000 0.964198 -0.257533 -0.063234 
-0.831680 34.055000 -2.000000 -0.819899 -0.549274 -0.161443 
-0.265750 32.652000 -2.000000 -0.042397 -0.985345 0.165223 
0.261520 32.132000 -2.000000 -0.887158 -0.461279 -0.013128 
0.768610 31.473000 -2.000000 -0.482926 -0.857989 -0.175035 
1.285100 31.563000 -2.000000 0.079169 -0.984343 -0.157483 
1.797800 31.521999 -2.000000 -0.358947 -0.933353 -0.003127 
2.280000 31.070999 -2.000000 -0.279134 -0.958777 0.053202 
2.804000 31.236000 -2.000000 0.074216 -0.984396 -0.159549 
3.293200 31.009001 -2.000000 0.089422 -0.981973 -0.166530 
3.810100 31.054001 -2.000000 0.010335 -0.994482 -0.104396 
4.313000 30.973000 -2.000000 0.029211 -0.968328 -0.247966 
4.818900 30.914000 -2.000000 0.085881 -0.935277 -0.343338 
5.296300 30.686001 -2.000000 -0.009987 -0.982407 -0.186488 
5.830900 30.784000 -2.000000 0.227224 -0.941357 -0.249430 
6.420500 31.118000 -2.000000 0.321132 -0.946234 -0.038915 
6.922800 30.993999 -2.000000 0.382033 -0.922570 -0.053997 
7.595100 31.579000 -2.000000 0.421504 -0.906000 0.038705 
8.536500 33.112999 -2.000000 -0.984962 0.129174 -0.114735 
9.972500 36.233002 -2.000000 0.941504 -0.336979 -0.003813 
11.242000 38.391998 -2.000000 0.152812 -0.976208 -0.153839 
12.142000 39.092999 -2.000000 0.611372 -0.790634 -0.033498 
13.011000 39.605999 -2.000000 0.339831 -0.939579 -0.041296 
13.720000 39.578999 -2.000000 0.102147 -0.993135 -0.056998 
14.658000 40.158001 -2.000000 0.752038 -0.628040 -0.200013 
15.091000 41.345001 -2.601400 -0.943938 -0.289578 0.158514 
14.452000 41.689999 -2.602900 -0.729519 -0.683683 0.019484 
13.668000 41.604000 -2.598400 -0.184374 -0.965228 0.185313 
13.022000 41.925999 -2.599900 0.405358 -0.914141 -0.005492 
12.134000 41.438000 -2.590000 0.436771 -0.899558 -0.005124 
11.180000 40.619999 -2.575700 0.583540 -0.811936 -0.015488 
10.399000 40.338001 -2.569200 0.811487 -0.583678 0.028450 
8.961500 37.259998 -2.523700 -0.985867 0.157939 0.055868 
7.637300 34.194000 -2.478800 -0.329166 -0.930944 -0.158093 
6.677200 32.362000 -2.451600 0.031867 -0.903117 -0.428210 
5.930700 31.311001 -2.435500 0.363017 -0.902909 -0.230162 
5.365000 31.084000 -2.431100 0.029768 -0.992061 -0.122185 
4.863100 31.197001 -2.431500 0.050756 -0.978704 -0.198901 
4.300700 30.885000 -2.426100 0.070321 -0.993279 0.091931 
3.797400 30.951000 -2.426100 -0.121471 -0.964098 0.236136 
3.290000 30.979000 -2.425700 0.000673 -0.959664 0.281150 
3.290000 30.979000 -2.425700 0.000673 -0.959664 0.281150 
2.750900 30.643999 -2.420500 0.047442 -0.974710 0.218381 
2.262000 30.825001 -2.422400 0.077750 -0.982848 -0.167230 
1.752700 30.732000 -2.420700 -0.293697 -0.955691 0.019900 
1.266800 31.113001 -2.425500 -0.303102 -0.923271 0.236008 
0.759860 31.115000 -2.425300 0.100022 -0.990064 -0.098838 
0.254510 31.270000 -2.427400 -0.724303 -0.663351 -0.188017 
-0.257470 31.634001 -2.432300 -0.687932 -0.672497 -0.272943 
-0.777260 31.827000 -2.435100 -0.552016 -0.818118 -0.161124 
-1.322700 32.485001 -2.444300 -0.453825 -0.890871 0.019791 
-1.990900 34.908001 -2.477800 -0.719435 -0.694348 -0.017165 
-2.715600 37.007000 -2.507100 0.959264 -0.279583 -0.040571 
-3.552700 39.576000 -2.543000 0.076106 -0.992217 -0.098561 
-4.395800 41.390999 -2.568800 0.253252 -0.951070 -0.177001 
-5.032600 41.018002 -2.564700 0.090457 -0.925947 0.366660 
-5.736100 41.193001 -2.568300 0.274950 -0.920112 -0.278919 
-6.329900 40.606998 -2.561600 -0.071096 -0.996388 0.046439 
-7.171500 41.549999 -2.576100 -0.618779 -0.697904 0.360614 
-7.859600 41.494999 -2.577100 -0.087606 -0.993957 -0.066142 
-8.653300 41.939999 -2.585200 0.315591 -0.929030 0.193148 
-9.296700 41.623001 -2.582800 0.050880 -0.988016 0.145723 
-10.047000 41.772999 -2.587100 -0.005680 -0.999683 0.024544 
-10.950000 42.476002 -2.599400 -0.314330 -0.061906 0.947293 
-11.592000 42.116001 -2.596900 0.243726 -0.791137 -0.560981 
-12.379000 42.273998 -2.601900 0.297932 -0.816626 -0.494327 
-13.000000 41.855999 -2.598900 0.307356 -0.885365 -0.348799 
-13.521000 41.157001 -2.591900 0.828244 0.016534 0.560124 
-14.307000 41.272999 -2.596900 0.062491 -0.996639 0.052973 
-15.091000 41.345001 -2.601400 -0.280295 -0.927180 0.248539 
-15.141000 41.481998 -3.207400 -0.015510 -0.978256 0.206820 
-15.095000 43.543999 -3.260100 0.527023 -0.359078 0.770266 
-13.924000 42.382000 -3.219700 -0.439966 -0.252188 0.861877 
-13.153000 42.349998 -3.212500 -0.100781 -0.404996 0.908747 
-12.224000 41.744999 -3.189300 0.351147 -0.634796 0.688280 
-11.858000 43.084999 -3.221800 0.071475 -0.363105 0.929003 
-11.146000 43.235001 -3.220800 0.123102 -0.472204 0.872851 
-10.129000 42.116001 -3.184400 0.222023 -0.826402 0.517461 
-9.505500 42.557999 -3.192300 0.472213 -0.811897 0.343274 
-8.724200 42.283001 -3.180500 0.024467 -0.283590 0.958633 
-8.169700 43.132000 -3.200300 0.207416 -0.697849 0.685555 
-7.325000 42.439999 -3.177600 0.201470 -0.710265 0.674487 
-6.705200 43.014000 -3.190300 -0.429401 -0.901109 0.060143 
-5.915300 42.480000 -3.172700 -0.403665 -0.914439 -0.029253 
-5.121700 41.743999 -3.150000 -0.592935 -0.803304 0.055959 
-4.437900 41.787998 -3.149000 0.559400 -0.828469 0.026656 
-3.784700 42.161999 -3.157400 0.205139 -0.950946 0.231560 
-2.965200 40.408001 -3.107900 -0.624166 -0.777552 0.076353 
-2.305300 40.419998 -3.107000 -0.624166 -0.777552 0.076353 
-1.518200 37.286999 -3.020400 0.410369 -0.898168 -0.157772 
-0.837080 34.276001 -2.937600 -0.836697 -0.543319 0.068875 
-0.265080 32.569000 -2.890700 -0.203196 -0.967743 0.148950 
0.260980 32.064999 -2.877000 -0.728710 -0.684734 0.010971 
0.770340 31.544001 -2.862900 -0.489764 -0.862683 -0.126133 
1.271400 31.224001 -2.854700 -0.375310 -0.926595 -0.023761 
1.775200 31.125000 -2.852600 -0.180281 -0.915667 -0.359240 
2.270900 30.945999 -2.848600 -0.132605 -0.954625 -0.266661 
2.775600 30.920000 -2.849000 0.060396 -0.950951 -0.303388 
3.287800 30.958000 -2.851400 0.078436 -0.968096 -0.237987 
3.775200 30.770000 -2.847800 -0.122416 -0.974569 -0.187695 
4.275600 30.704000 -2.847800 0.054432 -0.995383 0.079052 
4.801800 30.804001 -2.852600 0.172254 -0.981663 0.081643 
5.315200 30.795000 -2.854700 -0.130436 -0.983146 0.128100 
5.824100 30.747999 -2.855900 -0.433684 -0.900614 0.028523 
6.385200 30.947001 -2.864200 -0.015887 -0.989153 0.146027 
6.972900 31.219000 -2.874800 0.114549 -0.986335 0.118417 
7.557400 31.422001 -2.883800 -0.989943 -0.120289 -0.074449 
8.548400 33.159000 -2.936500 -0.996214 0.024484 0.083416 
9.891500 35.938999 -3.019300 -0.920932 -0.302521 -0.245695 
11.299000 38.587002 -3.099400 -0.705357 -0.571270 0.419668 
12.217000 39.334999 -3.126200 0.371151 -0.436919 -0.819359 
13.073000 39.794998 -3.145300 -0.039406 -0.816397 -0.576145 
13.719000 39.577000 -3.145300 0.320416 -0.849707 0.418727 
14.657000 40.158001 -3.168900 0.829086 -0.500335 -0.249562 
14.605000 40.014999 -3.748200 -0.918547 0.156594 0.362974 
14.472000 41.748001 -3.813300 -0.270083 -0.638860 0.720356 
13.675000 41.625999 -3.798100 -0.191274 -0.520363 0.832248 
12.614000 40.612999 -3.745300 -0.058406 -0.515828 0.854699 
11.971000 40.880001 -3.748200 0.424784 -0.558240 0.712690 
11.067000 40.209999 -3.711600 0.507350 -0.650809 0.564840 
10.103000 39.188999 -3.661000 0.688221 -0.525039 0.500686 
9.062500 37.681000 -3.590600 0.474701 -0.615733 -0.628914 
7.660600 34.298000 -3.442500 0.640116 -0.767491 0.034775 
6.642400 32.194000 -3.349400 -0.106267 -0.801189 0.588900 
5.997800 31.666000 -3.323100 0.260271 -0.910403 -0.321598 
5.428100 31.448999 -3.310200 0.236044 -0.953902 0.185351 
4.893900 31.395000 -3.304400 0.482140 -0.872518 0.079081 
4.329100 31.089001 -3.288600 0.021281 -0.999765 0.004100 
3.818800 31.125000 -3.287400 -0.198856 -0.977475 -0.070704 
3.300600 31.077999 -3.283100 -0.083715 -0.987438 -0.134007 
2.788900 31.069000 -3.280600 -0.047828 -0.957480 -0.284509 
2.288300 31.184000 -3.283700 -0.192135 -0.939906 -0.282243 
1.777900 31.173000 -3.281800 -0.359115 -0.933189 -0.013932 
1.270300 31.197001 -3.281800 -0.291897 -0.893711 -0.340701 
0.765960 31.364000 -3.288000 -0.322721 -0.927714 -0.187613 
0.256960 31.570999 -3.296200 -0.143366 -0.985977 0.085420 
-0.258090 31.711000 -3.301900 -0.580941 -0.813670 0.021181 
-0.782220 32.029999 -3.315300 -0.421300 -0.882651 0.208405 
-1.320100 32.422001 -3.332100 -0.421300 -0.882651 0.208405 
-1.972500 34.585999 -3.422000 -0.783555 -0.603157 0.149140 
-2.750100 37.477001 -3.542400 -0.514152 -0.842025 0.163222 
-3.590700 40.000000 -3.648300 -0.219112 -0.877536 -0.426522 
-4.369200 41.140999 -3.697900 0.541329 -0.663068 0.517015 
-4.978700 40.578999 -3.677900 0.056388 -0.769189 0.636529 
-5.803400 41.675999 -3.726900 -0.328424 -0.335796 0.882825 
-6.336800 40.651001 -3.688500 -0.670589 -0.674990 0.307733 
-7.099200 41.131001 -3.713000 0.265219 -0.868925 0.417885 
-7.805500 41.209000 -3.721300 0.286882 -0.920160 0.266465 
-8.593400 41.650002 -3.745300 -0.287915 -0.897975 0.332785 
-9.120500 40.834000 -3.717100 -0.037783 -0.984391 0.171891 
-9.912000 41.213001 -3.739600 0.223496 -0.912813 0.341791 
-10.608000 41.146999 -3.743900 0.190000 -0.901539 0.388751 
-11.212000 40.735001 -3.733900 0.109433 -0.832712 0.542784 
-12.020000 41.048000 -3.755300 0.093040 -0.839098 0.535964 
-12.707000 40.915001 -3.758200 0.094312 -0.909489 0.404889 
-13.416000 40.837002 -3.764000 -0.103447 -0.988159 -0.113320 
-13.883000 40.049999 -3.739600 0.073928 -0.566909 0.820456 
-14.985000 41.055000 -3.793600 -0.443073 -0.896051 -0.027907 
-15.079000 41.313999 -4.408300 -0.443073 -0.896051 -0.027907 
-14.381000 41.484001 -4.404200 -0.063820 -0.918563 0.390089 
-13.669000 41.608002 -4.398200 -0.111657 -0.819356 0.562307 
-12.712000 40.929001 -4.346900 -0.068727 -0.953076 0.294825 
-11.936000 40.759998 -4.325800 0.000117 -0.858373 0.513026 
-11.411000 41.458000 -4.354700 0.112636 -0.851275 0.512488 
-10.576000 41.026001 -4.320100 0.245376 -0.865643 0.436409 
-9.939800 41.327999 -4.327700 -0.028619 -0.774372 0.632083 
-9.319300 41.723999 -4.341100 0.009278 -0.634290 0.773040 
-8.498600 41.189999 -4.303200 0.004361 -0.705950 -0.708249 
-7.751300 40.923000 -4.280900 0.046807 -0.259125 0.964709 
-7.194300 41.681999 -4.316300 -0.056353 -0.357034 0.932390 
-6.530900 41.896000 -4.322000 -0.020065 -0.442015 0.896783 
-5.680300 40.792000 -4.255500 -0.171174 -0.369524 0.913319 
-4.960400 40.430000 -4.230700 0.097240 -0.531066 0.841732 
-4.335800 40.826000 -4.248300 -0.130506 -0.586904 0.799069 
-3.673600 40.923000 -4.250100 -0.224062 -0.674706 0.703256 
-2.941900 40.091999 -4.201500 -0.601812 -0.506603 0.617394 
-2.285500 40.073002 -4.198200 -0.823908 -0.303886 0.478361 
-1.521300 37.362000 -4.048100 -0.703052 -0.664473 0.253365 
-0.836900 34.269001 -3.877700 -0.920111 -0.391326 0.016098 
-0.263060 32.320999 -3.770700 -0.428058 -0.772955 0.468303 
0.258840 31.802999 -3.742400 -0.550908 -0.744476 0.377169 
0.775700 31.763000 -3.740600 -0.037128 -0.997122 0.066094 
1.290100 31.684000 -3.737200 -0.224045 -0.972816 0.058597 
1.792400 31.427000 -3.724600 -0.254982 -0.947596 0.192471 
2.282600 31.107000 -3.708800 -0.211640 -0.913742 0.346820 
2.794000 31.125000 -3.712100 0.041959 -0.967802 0.248192 
3.297100 31.046000 -3.710500 -0.035629 -0.954861 0.294908 
3.798400 30.958000 -3.708800 -0.262066 -0.930631 0.255437 
4.275300 30.702000 -3.698300 -0.161522 -0.971209 0.175112 
4.758800 30.528000 -3.692800 -0.085236 -0.958126 0.273365 
5.242900 30.375999 -3.688800 -0.119575 -0.991739 -0.046433 
5.788000 30.558001 -3.703900 -0.210308 -0.975612 0.062869 
6.272700 30.402000 -3.700700 0.144535 -0.970747 0.191728 
6.871800 30.766001 -3.727100 0.257156 -0.907673 0.331663 
7.429700 30.892000 -3.740600 0.286975 -0.896366 0.337896 
8.518100 33.042000 -3.869100 -0.978725 -0.141115 -0.148943 
9.649700 35.060001 -3.991800 0.668426 -0.655412 0.351626 
11.039000 37.698002 -4.151300 0.179122 -0.138276 0.974061 
11.676000 37.595001 -4.156000 -0.025272 -0.419570 0.907371 
12.624000 38.426998 -4.215100 -0.334850 -0.606765 -0.720911 
13.352000 38.515999 -4.232400 -0.344682 -0.866678 0.360645 
14.099000 38.627998 -4.251900 0.278956 -0.719844 0.635616 
13.901000 38.085999 -4.778000 -0.276369 -0.266576 0.923340 
13.777000 39.743000 -4.881900 -0.329521 -0.388600 0.860469 
12.918000 39.320999 -4.835700 -0.330939 -0.509790 0.794099 
12.266000 39.493999 -4.833400 -0.009812 -0.414132 0.910164 
11.511000 39.310001 -4.806500 0.074791 -0.433696 0.897950 
10.717000 38.938999 -4.767200 -0.221722 -0.226055 -0.948545 
10.082000 39.108002 -4.767200 0.593302 -0.662425 0.457369 
8.957100 37.242001 -4.624700 -0.799937 0.043190 -0.598528 
7.602700 34.037998 -4.390300 0.851179 -0.427390 0.304684 
6.450400 31.263000 -4.188200 -0.043526 -0.824040 0.564858 
5.811400 30.681000 -4.140700 0.228707 -0.972752 -0.038045 
5.293400 30.669001 -4.133500 -0.103255 -0.966192 -0.236246 
4.809700 30.854000 -4.140700 -0.059036 -0.940348 -0.335053 
4.242100 30.464001 -4.108600 0.017314 -0.991306 0.130436 
3.747400 30.542999 -4.109500 0.063312 -0.978220 0.197681 
3.207700 30.204000 -4.082300 -0.034152 -0.965732 0.257284 
2.744900 30.577999 -4.104700 -0.396766 -0.878328 0.266676 
2.247900 30.632999 -4.105700 -0.297048 -0.917580 0.264214 
1.751400 30.708000 -4.108600 -0.366105 -0.923807 0.112017 
1.258900 30.919001 -4.121400 -0.106120 -0.990594 0.086387 
0.760180 31.128000 -4.134500 -0.288800 -0.934923 0.206188 
0.252450 31.017000 -4.126400 0.276381 -0.922768 0.268538 
-0.254890 31.316999 -4.146900 -0.043780 -0.921597 0.385672 
-0.769830 31.523001 -4.161500 -0.029301 -0.854702 0.518292 
-1.296800 31.848000 -4.185000 -0.193172 -0.797788 0.571156 
-1.942200 34.054001 -4.337800 -0.653758 0.009281 0.756646 
-2.662300 36.280998 -4.493000 -0.593163 -0.743606 0.308556 
-3.459700 38.541000 -4.651600 -0.401138 -0.283079 0.871180 
-4.115300 38.750000 -4.670200 -0.139215 -0.328653 0.934134 
-4.807700 39.185001 -4.705100 -0.236087 -0.347546 0.907455 
-5.502200 39.513000 -4.733500 -0.054972 -0.441350 0.895650 
-6.206000 39.812000 -4.760800 -0.023253 -0.540578 0.840973 
-6.806100 39.432999 -4.741800 -0.021002 -0.404955 0.914095 
-7.447000 39.317001 -4.741800 0.001760 -0.305405 0.952221 
-8.154600 39.522999 -4.765000 -0.098020 -0.257949 0.961173 
-8.599500 38.500999 -4.703100 0.017857 -0.516540 0.856077 
-9.314800 38.730000 -4.729400 -0.123233 0.084733 0.988754 
-9.862700 38.257000 -4.707100 0.055554 -0.175660 0.982882 
-10.547000 38.319000 -4.723300 0.097824 -0.320258 -0.942266 
-11.211000 38.286999 -4.733500 0.050718 -0.528530 -0.847399 
-11.951000 38.480000 -4.760800 -0.218631 -0.259235 -0.940743 
-12.395000 37.730999 -4.721200 -0.146246 -0.699338 -0.699670 
-13.437000 38.763000 -4.810900 0.628524 0.076238 0.774045 
-13.490000 41.063000 -5.557000 -0.247930 -0.948899 -0.195245 
-12.578000 40.499001 -5.490000 0.033793 -0.782816 0.621336 
-11.639000 39.749001 -5.408700 0.669278 0.222139 0.709028 
-11.062000 40.192001 -5.430800 -0.355312 -0.887552 0.293267 
-10.136000 39.317001 -5.341700 0.189902 -0.439430 -0.877974 
-9.524400 39.601002 -5.352200 0.019893 -0.620345 -0.784077 
-8.694600 38.926998 -5.282900 -0.046996 -0.518401 0.853846 
-7.917300 38.373001 -5.225000 -0.116026 -0.500795 0.857754 
-7.224100 38.139999 -5.195200 -0.256493 -0.463505 0.848159 
-6.469500 37.481998 -5.131000 -0.126842 -0.284308 0.950305 
-5.843400 37.486000 -5.122900 -0.075483 -0.212291 0.974287 
-5.225700 37.528000 -5.119000 -0.054339 -0.221548 0.973634 
-4.552000 37.101002 -5.077000 -0.021999 -0.267124 0.963411 
-3.976400 37.442001 -5.099400 -0.117946 -0.116254 0.986192 
-3.368500 37.525002 -5.101400 -0.293549 -0.267175 0.917849 
-2.755600 37.550999 -5.099400 -0.392347 -0.325557 0.860277 
-2.100500 36.830002 -5.036800 -0.619255 -0.527652 0.581470 
-1.439100 35.342999 -4.912200 -0.700823 -0.075698 0.709308 
-0.808620 33.111000 -4.727200 -0.656184 -0.165849 0.736150 
-0.258550 31.767000 -4.616100 -0.213220 -0.742733 0.634732 
0.257030 31.580000 -4.600700 0.194165 -0.973450 0.121221 
0.772530 31.632999 -4.605800 0.024910 -0.986814 -0.159931 
1.274800 31.308001 -4.580500 -0.386296 -0.843217 -0.373846 
1.774700 31.117001 -4.566800 -0.165642 -0.887712 -0.429570 
2.288700 31.190001 -4.575500 -0.118640 -0.930254 -0.347205 
2.769300 30.850000 -4.550900 -0.274028 -0.782027 -0.559770 
3.271100 30.801001 -4.550900 -0.026224 -0.816909 -0.576170 
3.773800 30.757999 -4.552100 0.036336 -0.829521 -0.557292 
4.288300 30.795000 -4.560600 0.053434 -0.910366 -0.410339 
4.805100 30.825001 -4.569300 -0.040668 -0.988871 -0.143110 
5.301100 30.712999 -4.566800 -0.312576 -0.946032 0.085556 
5.803100 30.638000 -4.568000 -0.308096 -0.942670 0.128258 
6.258900 30.334999 -4.550900 -0.195870 -0.964449 0.177407 
6.784200 30.374001 -4.563100 -0.057665 -0.855155 0.515154 
7.366800 30.629999 -4.594400 -0.013442 -0.814005 0.580702 
8.211000 31.851000 -4.708400 -0.942913 0.146878 -0.298901 
9.431600 34.268002 -4.926100 0.565561 -0.472930 0.675631 
10.396000 35.500999 -5.045200 0.600226 -0.738952 0.306069 
11.147000 35.891998 -5.093700 0.394089 -0.628430 0.670649 
11.833000 36.020000 -5.120900 0.294677 -0.593856 0.748666 
12.609000 36.373001 -5.168800 0.272640 -0.573452 0.772541 
13.172000 36.089001 -5.162300 0.272640 -0.573452 0.772541 
13.350000 36.577000 -5.743500 0.230087 -0.526038 0.818745 
12.681000 36.581001 -5.722300 0.272640 -0.573452 0.772541 
11.992000 36.502998 -5.694100 0.294677 -0.593856 0.748666 
11.160000 35.932999 -5.617700 0.327706 -0.699928 -0.634594 
10.263000 35.049000 -5.511800 0.502499 -0.623114 0.599352 
9.579400 34.805000 -5.471300 0.509217 -0.614622 0.602443 
8.738300 33.896000 -5.366300 0.561560 -0.403768 0.722234 
8.028300 33.381001 -5.301900 0.704991 -0.411405 0.577697 
7.148600 32.005001 -5.154300 0.296534 -0.954078 -0.042459 
6.287900 30.475000 -4.993500 -0.394010 -0.823231 0.408713 
5.765900 30.441000 -4.980600 -0.351584 -0.888498 0.294890 
5.313200 30.783001 -5.005100 -0.361442 -0.901247 0.238984 
4.835000 31.017000 -5.019800 -0.296108 -0.953433 -0.057312 
4.329500 31.091000 -5.019800 -0.328224 -0.942707 -0.059762 
3.834100 31.250000 -5.028700 -0.164995 -0.887499 -0.430259 
3.326600 31.323000 -5.030200 0.056847 -0.972037 -0.227842 
2.808000 31.281000 -5.021300 -0.004249 -0.960891 -0.276895 
2.299600 31.337999 -5.022800 -0.067505 -0.990411 0.120536 
1.795400 31.479000 -5.033100 -0.048606 -0.961479 0.270546 
1.278300 31.396000 -5.022800 -0.271637 -0.860665 0.430661 
0.773970 31.691999 -5.049600 -0.295030 -0.890154 0.347251 
0.252520 31.025999 -4.984900 0.227402 -0.709250 0.667273 
-0.253260 31.115999 -4.993500 0.182791 -0.896908 0.402672 
-0.757870 31.033001 -4.986300 -0.080398 -0.844819 0.528977 
-1.264700 31.061001 -4.990600 -0.440233 -0.832577 0.336172 
-1.805100 31.650000 -5.049600 -0.149019 -0.957364 0.247483 
-2.413400 32.889000 -5.171900 -0.725279 -0.398971 0.561064 
-3.046800 33.941002 -5.277400 -0.043702 -0.524205 0.850470 
-3.595800 33.859001 -5.274700 -0.190214 -0.638869 0.745430 
-4.144700 33.780998 -5.273300 0.105481 -0.692011 0.714139 
-4.705800 33.793999 -5.281500 0.087362 -0.695941 0.712765 
-5.248700 33.671001 -5.277400 -0.039669 -0.718433 0.694464 
-5.815400 33.693001 -5.288300 -0.112632 -0.571172 0.813066 
-6.376200 33.662998 -5.295100 -0.393307 -0.226340 0.891112 
-7.055700 34.196999 -5.357900 -0.440717 -0.248037 0.862697 
-7.759700 34.741001 -5.423200 -0.618209 -0.571466 -0.539671 
-8.595200 35.737000 -5.534400 -0.321695 -0.052213 0.945403 
-9.514300 36.905998 -5.664400 -0.093624 -0.542799 0.834628 
-10.438000 37.925999 -5.781700 -0.354016 -0.785603 0.507445 
-11.282000 38.529999 -5.859600 -0.098739 -0.241548 -0.965352 
-12.030000 38.731998 -5.898900 0.321979 0.202134 0.924917 
-11.173000 40.592999 -6.631100 -0.124337 -0.340329 -0.932050 
-10.442000 40.504002 -6.600900 -0.125614 -0.724221 0.678030 
-9.531800 39.632000 -6.484000 -0.767747 -0.336251 0.545435 
-8.457600 37.866001 -6.268700 -0.068786 -0.721158 0.689347 
-7.391400 35.824001 -6.025000 -0.188822 -0.060445 0.980149 
-6.438500 33.992001 -5.807600 -0.421351 -0.517670 0.744635 
-5.640000 32.676998 -5.649900 -0.215888 -0.470802 0.855417 
-4.980100 31.948000 -5.559300 -0.124037 -0.560957 -0.818500 
-4.418400 31.730000 -5.526700 -0.063326 -0.765389 -0.640445 
-3.876600 31.596001 -5.504400 -0.056222 -0.934493 -0.351513 
-3.355200 31.593000 -5.497500 -0.080011 -0.942362 -0.324888 
-2.819600 31.410000 -5.471800 -0.009019 -0.955267 0.295607 
-2.312500 31.514000 -5.478700 0.116128 -0.970145 -0.212915 
-1.793900 31.454000 -5.468400 -0.098388 -0.990700 -0.093989 
-1.265500 31.080999 -5.424700 -0.416779 -0.841732 -0.343196 
-0.752520 30.813999 -5.393600 -0.170466 -0.828884 -0.532816 
-0.249910 30.705999 -5.380800 -0.116453 -0.834347 -0.538799 
0.250620 30.792999 -5.390400 -0.045534 -0.782528 -0.620949 
0.751090 30.756001 -5.387200 0.207835 -0.722662 0.659215 
1.264900 31.066000 -5.423000 -0.068661 -0.885113 0.460283 
1.758500 30.832001 -5.400100 -0.090713 -0.958280 0.271056 
2.280900 31.084000 -5.431300 -0.098773 -0.890809 0.443513 
2.790700 31.087999 -5.436300 0.027597 -0.948764 0.314778 
3.315800 31.221001 -5.456500 0.106005 -0.903671 0.414899 
3.836700 31.271000 -5.468400 -0.181885 -0.941028 0.285278 
4.313300 30.975000 -5.443100 -0.160562 -0.969660 0.184333 
4.761100 30.542999 -5.403300 -0.207213 -0.978181 -0.015004 
5.267700 30.520000 -5.409800 -0.387239 -0.895774 -0.218255 
5.725400 30.226999 -5.387200 -0.459890 -0.885848 -0.061442 
6.213700 30.115999 -5.385600 -0.513614 -0.816911 0.262406 
6.628900 29.679001 -5.348300 -0.158248 -0.748664 0.643786 
7.133800 29.660999 -5.358900 -0.018350 -0.777272 0.628897 
7.680000 29.791000 -5.387200 0.195629 0.102626 0.975294 
8.299000 30.153000 -5.443100 -0.109407 -0.530876 -0.840358 
8.945700 30.549999 -5.504400 0.023634 -0.625042 -0.780234 
9.455700 30.445000 -5.509500 -0.031911 -0.639861 -0.767828 
10.082000 30.688999 -5.555900 0.110576 -0.981248 -0.157877 
10.958000 31.610001 -5.682400 0.311485 -0.404580 -0.859821 
12.011000 32.907001 -5.855200 0.749435 -0.254285 0.611299 
12.217000 33.471001 -6.417500 -0.985200 -0.019075 -0.170345 
11.782000 33.987000 -6.459700 -0.911958 -0.297015 -0.283047 
11.173000 34.009998 -6.438200 -0.534696 -0.337593 -0.774681 
10.157000 32.703999 -6.246400 -0.361969 0.245816 0.899196 
9.354300 31.945000 -6.127900 0.098417 0.114370 0.988551 
8.620900 31.322001 -6.029200 0.007733 -0.764131 -0.645015 
8.102200 31.429001 -6.025300 -0.037579 -0.885544 -0.463032 
7.535200 31.330000 -5.996600 0.048429 -0.882069 -0.468625 
6.983400 31.266001 -5.973400 0.135366 -0.981690 0.134022 
6.423000 31.129999 -5.942500 0.070364 -0.694279 -0.716258 
5.848700 30.879000 -5.898200 -0.179649 -0.715988 -0.674602 
5.342700 30.954000 -5.896300 -0.124703 -0.785069 -0.606725 
4.840600 31.052999 -5.898200 -0.321003 -0.674419 -0.664918 
4.287900 30.792999 -5.856500 -0.113043 -0.874402 0.471851 
3.749700 30.562000 -5.819600 -0.172253 -0.693933 0.699132 
3.273800 30.826000 -5.845300 0.004770 -0.766650 0.642048 
2.747700 30.608999 -5.812300 -0.032732 -0.792561 0.608914 
2.272000 30.961000 -5.850900 -0.122968 -0.868123 0.480876 
1.766900 30.979000 -5.849100 -0.083104 -0.893072 0.442172 
1.269800 31.186001 -5.871600 0.029997 -0.961906 -0.271730 
0.757930 31.035000 -5.850900 0.054040 -0.950890 0.304774 
0.257050 31.582001 -5.917400 0.146944 -0.708506 -0.690237 
-0.256030 31.458000 -5.902100 0.027807 -0.661409 -0.749509 
-0.770690 31.558001 -5.915500 -0.010089 -0.636628 -0.771105 
-1.281100 31.464001 -5.905900 -0.369738 -0.691005 -0.621132 
-1.800100 31.563000 -5.921300 -0.030003 -0.810997 -0.584281 
-2.296600 31.297001 -5.892500 0.119753 -0.966761 -0.225903 
-2.818200 31.393999 -5.909700 -0.041867 -0.820445 -0.570191 
-3.327200 31.329000 -5.907800 -0.095682 -0.824814 -0.557249 
-3.886100 31.674000 -5.958000 -0.081971 -0.748175 -0.658418 
-4.390400 31.528999 -5.948300 -0.161110 -0.871721 -0.462759 
-4.915000 31.530001 -5.958000 -0.030399 -0.899635 -0.435584 
-5.478100 31.739000 -5.994700 -0.460673 -0.867649 -0.186990 
-6.080200 32.101002 -6.051900 -0.433071 -0.871858 -0.228722 
-6.735100 32.643002 -6.133400 -0.645922 -0.577228 0.499593 
-7.474200 33.463001 -6.251600 -0.478638 -0.679697 0.555804 
-9.733500 37.756001 -6.832700 0.414435 -0.083035 0.906283 
-9.436200 42.247002 -7.968600 0.668678 -0.741584 -0.054057 
-7.494900 36.325001 -7.116800 -0.261528 -0.212695 0.941469 
-6.465300 34.133999 -6.793800 -0.177409 -0.867591 0.464556 
-5.666700 32.831001 -6.598100 -0.123504 -0.992014 -0.025601 
-5.099900 32.716000 -6.569900 -0.264692 -0.950672 0.161741 
-4.523500 32.485001 -6.526800 -0.375940 -0.923887 -0.071432 
-3.981300 32.449001 -6.512300 -0.259571 -0.965722 -0.002193 
-3.400600 32.021000 -6.444700 -0.254357 -0.846516 -0.467667 
-2.879000 32.071999 -6.444700 0.197461 -0.886676 -0.418108 
-2.347500 31.990000 -6.427600 0.165409 -0.837774 -0.520361 
-1.840600 32.271999 -6.461700 0.015824 -0.981113 -0.192789 
-1.311300 32.205002 -6.449000 -0.039358 -0.850259 -0.524891 
-0.784630 32.129002 -6.436100 -0.015464 -0.843890 -0.536294 
-0.261950 32.183998 -6.442600 0.034050 -0.842357 -0.537843 
0.262830 32.292999 -6.457500 0.027919 -0.949072 -0.313820 
0.785010 32.145000 -6.438300 0.020333 -0.898835 -0.437816 
1.294200 31.785000 -6.391100 0.033415 -0.658211 -0.752091 
1.838800 32.241001 -6.457500 0.029423 -0.984792 -0.171229 
2.357700 32.130001 -6.446800 -0.119392 -0.976463 -0.179624 
2.869300 31.962999 -6.429700 -0.046462 -0.908176 -0.416002 
3.384200 31.865999 -6.423300 -0.196304 -0.869742 -0.452784 
3.915700 31.915001 -6.438300 -0.127051 -0.952415 -0.277064 
4.434700 31.847000 -6.438300 -0.112330 -0.881156 -0.459288 
4.971600 31.893000 -6.455300 0.139034 -0.769951 -0.622773 
5.461000 31.639999 -6.431900 -0.113994 -0.704178 -0.700813 
6.018600 31.775000 -6.463800 -0.265200 -0.798661 -0.540195 
6.500500 31.506001 -6.440400 -0.061491 -0.754445 -0.653477 
7.026000 31.457001 -6.449000 0.308875 -0.899070 -0.310275 
7.598400 31.593000 -6.485000 0.012662 -0.921519 -0.388128 
8.115500 31.480000 -6.487100 -0.078132 -0.966001 -0.246450 
8.606400 31.270000 -6.476600 -0.352047 -0.915847 0.193099 
9.191600 31.389000 -6.514400 0.391360 -0.597301 0.700049 
9.660600 31.105000 -6.495500 -0.323076 -0.881345 0.344751 
10.274000 31.274000 -6.543300 0.055590 -0.862790 0.502498 
11.053000 31.886000 -6.657300 0.131032 -0.575455 0.807268 
12.163000 33.324001 -6.894600 -0.969696 0.225829 -0.093226 
12.543000 34.365002 -7.561000 -0.988392 -0.007358 -0.151746 
12.543000 34.365002 -7.561000 -0.988392 -0.007358 -0.151746 
12.160000 35.077000 -7.643200 -0.988392 -0.007358 -0.151746 
11.424000 34.773998 -7.564100 -0.988392 -0.007358 -0.151746 
10.120000 32.583000 -7.188000 0.335157 -0.895237 -0.293633 
9.417400 32.160999 -7.096100 0.534906 -0.830967 0.152872 
8.746300 31.778000 -7.012600 0.419434 -0.750121 0.511267 
8.213100 31.858999 -7.003600 -0.189499 -0.963428 0.189467 
7.655000 31.827999 -6.978700 -0.161906 -0.909021 0.384014 
7.187900 32.181999 -7.014800 -0.173069 -0.502658 0.846984 
6.663100 32.293999 -7.014800 -0.084550 -0.894872 -0.438242 
6.095000 32.179001 -6.981000 -0.351424 -0.826793 -0.439221 
5.550000 32.154999 -6.962800 -0.106657 -0.994265 -0.007782 
5.076500 32.566002 -7.012600 0.179523 -0.965873 0.186713 
4.483700 32.199001 -6.944400 0.176486 -0.968641 0.174893 
3.962700 32.298000 -6.949000 -0.313971 -0.949097 -0.025262 
3.458800 32.568001 -6.981000 -0.270563 -0.953558 -0.132375 
2.922800 32.560001 -6.971900 0.105685 -0.993490 -0.042530 
2.388000 32.542999 -6.962800 0.004653 -0.998741 0.049942 
1.847600 32.396000 -6.935200 0.074608 -0.995055 0.065564 
1.326900 32.589001 -6.960500 0.030854 -0.997440 -0.064511 
0.788830 32.300999 -6.914300 -0.023818 -0.999716 0.000123 
0.262210 32.216999 -6.900300 0.034523 -0.969393 0.243077 
-0.262210 32.216999 -6.900300 0.030587 -0.970681 0.238416 
-0.788450 32.285000 -6.912000 0.035015 -0.982301 0.184005 
-1.312600 32.237000 -6.907300 0.104422 -0.959209 0.262707 
-1.839800 32.257999 -6.914300 0.223784 -0.912964 0.341199 
-2.360100 32.161999 -6.905000 0.008884 -0.945122 0.326596 
-2.881900 32.104000 -6.902600 -0.056825 -0.964814 0.256720 
-3.407300 32.084000 -6.907300 -0.167418 -0.932698 0.319446 
-3.949700 32.192001 -6.932900 -0.193902 -0.877182 0.439264 
-4.466800 32.077999 -6.925900 -0.184540 -0.869645 0.457889 
-5.028200 32.256001 -6.965100 -0.359309 -0.874293 0.326358 
-5.531900 32.050999 -6.946700 0.952967 0.150754 0.262922 
-6.142100 32.426998 -7.019300 -0.203876 -0.935930 0.287174 
-6.780300 32.862000 -7.102600 -0.794304 -0.565153 -0.222897 
-8.576800 41.569000 -9.047200 -0.619794 -0.481765 -0.619483 
-5.680300 32.910000 -7.550800 -0.137182 -0.975487 0.172065 
-5.029200 32.263000 -7.427700 -0.633308 -0.622084 0.460361 
-4.463900 32.056000 -7.380200 -0.114325 -0.816922 0.565304 
-3.926600 32.004002 -7.360000 0.026590 -0.922038 0.386185 
-3.392200 31.941000 -7.339700 -0.027970 -0.913696 0.405435 
-2.871800 31.992001 -7.339700 -0.004021 -0.928081 0.372358 
-2.330300 31.757000 -7.293700 -0.011645 -0.909037 0.416552 
-1.807800 31.698000 -7.278200 0.198665 -0.933631 0.298102 
-1.308600 32.139999 -7.347300 0.142495 -0.904723 0.401462 
-0.784570 32.125999 -7.342300 -0.032129 -0.933470 0.357213 
-0.262800 32.287998 -7.367600 -0.073059 -0.885899 0.458089 
0.261420 32.119999 -7.339700 0.123203 -0.884502 0.449975 
0.789440 32.326000 -7.375200 0.261589 -0.858238 0.441587 
1.309900 32.171001 -7.352400 -0.012017 -0.881473 0.472082 
1.835100 32.175999 -7.357500 -0.061182 -0.895371 0.441097 
2.345100 31.958000 -7.327000 -0.024189 -0.945456 0.324851 
2.893700 32.236000 -7.380200 0.089187 -0.845918 0.525803 
3.427700 32.275002 -7.395300 -0.198771 -0.812260 0.548384 
3.907900 31.851000 -7.334600 -0.364948 -0.875054 0.317951 
4.434300 31.844000 -7.344800 -0.141107 -0.970264 0.196661 
4.959100 31.813000 -7.352400 0.065579 -0.913104 0.402418 
5.510100 31.924000 -7.385300 -0.201926 -0.761171 0.616316 
6.043100 31.905001 -7.397800 -0.191417 -0.773577 0.604101 
6.475000 31.382999 -7.327000 -0.417193 -0.779155 0.467832 
7.041900 31.528000 -7.370200 0.075749 -0.917707 0.389969 
7.532700 31.320000 -7.355000 -0.045346 -0.875420 0.481232 
8.041500 31.193001 -7.355000 -0.264296 -0.881142 0.392094 
