# .PCD v0.7 - Point Cloud Data file format
VERSION 0.7
FIELDS x y z
SIZE 4 4 4
TYPE F F F
COUNT 1 1 1
WIDTH 1573
HEIGHT 1
VIEWPOINT 0 0 0 1 0 0 0
POINTS 1573
DATA ascii
-4.1970301 4.9019599 12.881933
-4.239419 4.7913547 12.770944
-4.3293514 4.7353935 12.80794
-4.4058557 4.6642976 12.80794
-4.4833503 4.5941763 12.814106
-4.570694 4.5336442 12.851103
-4.6461105 4.4607859 12.857269
-4.7181029 4.3845706 12.857269
-4.7704725 4.290668 12.80794
-4.8256998 4.2002826 12.770944
-4.8957911 4.1231685 12.777109
-4.962255 4.0429335 12.777109
-5.0249782 3.9597156 12.770944
-5.0887647 3.8773997 12.770944
-5.1512027 3.7940564 12.770944
-5.242475 3.7312014 12.844936
-5.305059 3.6471255 12.851103
-5.3920293 3.579083 12.91893
-5.4209604 3.4725153 12.851103
-5.4767642 3.3838186 12.851103
-5.531117 3.2942252 12.851103
-5.5840039 3.203759 12.851103
-5.6354117 3.1124439 12.851103
-5.6853261 3.0203042 12.851103
-5.6649566 2.8922496 12.69695
-5.7445664 2.8159735 12.770944
-5.7756643 2.7155249 12.740112
-5.8134665 2.6186178 12.72778
-5.8581562 2.5248678 12.733947
-5.8984776 2.4291804 12.733947
-5.9171109 2.3249421 12.690784
-5.9541702 2.2283213 12.690784
-5.9925618 2.1321456 12.69695
-6.0615931 2.0461779 12.770944
-6.1117496 1.9528836 12.80794
-6.160471 1.8584969 12.844936
-6.195848 1.7596648 12.857269
-6.2385931 1.6625592 12.8881
-6.2468443 1.5563132 12.851103
-6.2713485 1.4544274 12.851103
-6.1975508 1.3313951 12.653788
-6.3123364 1.2489271 12.844936
-6.2132869 1.1245607 12.604458
-6.3740287 1.046806 12.894265
-6.387167 0.94246656 12.8881
-6.4016614 0.83837801 12.8881
-6.2702212 0.71756077 12.598292
-6.2533107 0.51007378 12.524299
-6.2607846 0.4082213 12.524299
-6.3067083 0.3082208 12.604458
-6.2738419 0.2043194 12.530465
-6.3164873 0.10282686 12.610624
-6.1406727 0.099964745 12.689527
-6.1742659 0.20107652 12.764019
-6.1731758 0.30169484 12.770227
-6.1211567 0.49929413 12.689527
-6.0733471 0.59505332 12.608826
-6.0658422 0.69417173 12.615034
-6.0507603 0.79242313 12.608826
-6.0603023 0.99528277 12.689527
-6.0462556 1.0943294 12.695734
-6.0423789 1.1955147 12.726773
-6.007432 1.2905527 12.695734
-5.9827032 1.3874857 12.689527
-5.9418344 1.4803244 12.65228
-5.937274 1.5822589 12.695734
-5.890502 1.6729443 12.65228
-5.8797498 1.7738087 12.689527
-5.9044738 1.8866528 12.807473
-5.821744 1.9652133 12.695734
-5.8031378 2.0647488 12.726773
-5.8250375 2.1799941 12.850927
-5.7887821 2.2745192 12.850927
-5.7509933 2.3684416 12.850927
-5.7282348 2.4688716 12.888174
-5.7229013 2.5778234 12.968874
-5.6774654 2.6693552 12.962667
-5.6170778 2.7534788 12.92542
-5.5741911 2.8459091 12.931628
-5.5563159 2.9517679 12.999913
-5.4917541 3.0331016 12.962667
-5.4260211 3.1131179 12.92542
-5.3565612 3.1902633 12.881967
-5.3064795 3.2786083 12.888174
-5.2372317 3.3548238 12.850927
-5.1794281 3.4379642 12.84472
-5.1203065 3.520112 12.838512
-5.069675 3.6082151 12.857135
-5.0247869 3.7009463 12.894382
-4.9614911 3.7804236 12.888174
-4.8851414 3.8495235 12.850927
-4.877737 3.9740736 12.999913
-4.7871265 4.0316529 12.931628
-4.7208695 4.1090388 12.931628
-4.6533613 4.1853356 12.931628
-4.5714154 4.2482524 12.894382
-4.5385041 4.3574719 12.999913
-4.4264479 4.3905678 12.881967
-4.3564949 4.4641852 12.888174
-4.2956328 4.5476089 12.92542
-4.2190151 4.6147089 12.919212
-4.1453338 4.6850204 12.92542
-4.0782967 4.7632842 12.956459
-4.0136409 4.8452315 12.999913
-3.9116991 4.8817844 12.92542
-3.8409216 4.9566827 12.956459
-3.7417192 4.9944992 12.894382
-3.6564045 5.0498748 12.881967
-3.5633905 5.0939498 12.84472
-3.5035503 5.1861296 12.931628
-3.4071839 5.2248535 12.888174
-3.3216879 5.2796202 12.888174
-3.2337532 5.3304191 12.881967
-3.1465619 5.3823485 12.881967
-3.0585368 5.4328518 12.881967
-2.9897363 5.5188994 12.968874
-2.8800788 5.5295272 12.881967
-2.7896934 5.5756736 12.881967
-2.6985688 5.6203427 12.881967
-2.606729 5.6635227 12.881967
-2.5154104 5.7079515 12.888174
-2.4198358 5.7426009 12.875758
-2.3271644 5.7840152 12.881967
-2.2337859 5.8239331 12.888174
-2.1325133 5.842587 12.850927
-2.0371311 5.876524 12.850927
-1.9590259 5.9631362 12.968874
-1.8492289 5.9540639 12.881967
-1.7478482 5.9689584 12.850927
-1.6496629 5.9937205 12.84472
-1.5518848 6.0197783 12.84472
-1.4536954 6.0442405 12.84472
-1.355776 6.0700336 12.850927
-1.2561874 6.0883551 12.84472
-1.1569211 6.1079955 12.84472
-1.0609252 6.1467419 12.888174
-0.96027172 6.1602278 12.881967
-0.85697412 6.154212 12.838512
-0.75705457 6.1703277 12.84472
-0.65652007 6.1818328 12.84472
-0.55769199 6.2126465 12.888174
-0.45495594 6.1999264 12.84472
-0.35500613 6.2245078 12.881967
-0.25290963 6.2114501 12.84472
-0.15221269 6.2327647 12.881967
-0.050766498 6.237421 12.888174
0.050619785 6.2193952 12.850927
0.15177259 6.2147436 12.84472
0.25290963 6.2114501 12.84472
0.35415077 6.2095098 12.850927
0.45517582 6.2029228 12.850927
0.55581164 6.1917 12.84472
0.65683734 6.1848202 12.850927
0.75705457 6.1703277 12.84472
0.8573885 6.1571875 12.84472
0.95795792 6.1453848 12.850927
1.0578592 6.1289783 12.850927
1.1563619 6.1050434 12.838512
1.2567946 6.0912976 12.850927
1.355776 6.0700336 12.850927
1.4536954 6.0442405 12.84472
1.5526347 6.0226874 12.850927
1.6504601 5.9966173 12.850927
1.7478482 5.9689584 12.850927
1.8447732 5.9397178 12.850927
1.9412093 5.9089036 12.850927
2.0361471 5.8736854 12.84472
2.1325133 5.842587 12.850927
2.2273304 5.8071022 12.850927
2.3204358 5.7672915 12.84472
2.415169 5.7315264 12.850927
2.5069294 5.6887064 12.84472
2.6004484 5.6498766 12.850927
2.6907661 5.6040926 12.84472
2.780283 5.5568657 12.838512
2.8717515 5.5135393 12.84472
2.9625459 5.4687076 12.850927
3.0511672 5.4197617 12.850927
3.1389804 5.36938 12.850927
3.2244034 5.3150067 12.84472
3.3312874 5.294878 12.92542
3.4170306 5.2399535 12.92542
3.4900954 5.1662135 12.881967
3.5857785 5.1259537 12.92542
3.6793103 5.0815101 12.962667
3.7291098 4.9776678 12.850927
3.8317204 4.944808 12.92542
3.8910336 4.8559937 12.857135
3.9906416 4.8174672 12.92542
4.0411706 4.7199225 12.838512
4.1333885 4.6715202 12.888174
4.1946883 4.5881004 12.84472
4.2832541 4.5345044 12.888174
4.358593 4.4663358 12.894382
4.4285812 4.3926835 12.888174
4.5124974 4.3325024 12.92542
4.5802188 4.2564335 12.919212
4.6511273 4.1833267 12.92542
4.6914086 4.083396 12.850927
4.7848287 4.0297174 12.92542
4.8218355 3.9285288 12.850927
4.8827815 3.8476639 12.84472
4.9495425 3.7713192 12.857135
5.0102725 3.6902559 12.857135
5.0941525 3.6256363 12.919212
5.1698227 3.5541532 12.962667
5.2119694 3.4595642 12.92542
5.232172 3.3515828 12.838512
5.288588 3.267554 12.84472
5.3591423 3.1918006 12.888174
5.4416571 3.1220889 12.962667
5.4891243 3.0316491 12.956459
5.4926376 2.9179392 12.850927
5.5420809 2.8295152 12.857135
5.5820074 2.7362874 12.84472
5.6312442 2.6476235 12.857135
5.6708541 2.5543792 12.850927
5.7116804 2.4617364 12.850927
5.7482152 2.3672974 12.84472
5.7915788 2.2756178 12.857135
5.8222237 2.178941 12.84472
5.8569193 2.0838842 12.84472
5.8900623 1.9882753 12.84472
5.9245071 1.893054 12.850927
5.9516592 1.7955024 12.84472
5.9800959 1.6983896 12.84472
6.0621071 1.6155264 12.962667
6.0380397 1.5042925 12.857135
6.0587983 1.4051335 12.850927
6.0808668 1.3063285 12.850927
6.1013246 1.2071774 12.850927
6.1201653 1.1077064 12.850927
6.1373849 1.007942 12.850927
6.1529779 0.90791047 12.850927
6.1669407 0.80763841 12.850927
6.1822548 0.7074939 12.857135
6.1929512 0.60677189 12.857135
6.1990128 0.5056448 12.850927
6.203424 0.4044812 12.84472
6.2121868 0.30360138 12.850927
6.2343225 0.20303237 12.888174
6.2187772 0.10123622 12.850927
6.2196012 0 12.850927
6.040575 0 12.928432
6.0368557 0.0982747 12.922184
6.037374 0.19661838 12.928432
6.0333738 0.29486245 12.928432
6.0306883 0.39321834 12.93468
6.0176697 0.49085286 12.922184
6.008883 0.58873725 12.922184
6.0014043 0.6867975 12.928432
5.9923248 0.78477025 12.93468
5.9758692 0.88177699 12.928432
5.9607248 0.97892916 12.928432
5.9440012 1.075822 12.928432
5.9285665 1.1729964 12.93468
5.9086885 1.26934 12.93468
5.9156833 1.3719428 12.997162
5.9123979 1.4729906 13.040899
5.8368626 1.5554997 12.928432
5.8107705 1.6503 12.928432
5.7831388 1.7446631 12.928432
5.8068109 1.8554466 13.047148
5.7592444 1.9441158 13.009659
5.7240868 2.0366225 13.00341
5.6901784 2.1295235 13.00341
5.6737823 2.2293336 13.047148
5.5854554 2.3002679 12.928432
5.5633597 2.3978105 12.965921
5.5395646 2.4952412 13.00341
5.4665127 2.5701723 12.928432
5.439682 2.6665199 12.965921
5.3799582 2.7467432 12.928432
5.3319583 2.8325791 12.922184
5.3030348 2.9288716 12.965921
5.2698522 3.0235178 13.00341
5.1873336 3.0894747 12.922184
5.1686454 3.1934474 13.00341
5.1012316 3.2677062 12.965921
5.0352058 3.3422334 12.93468
4.9753261 3.4204407 12.922184
4.921371 3.5026636 12.928432
4.8754592 3.590961 12.959673
4.8024311 3.6592269 12.922184
4.7422338 3.7369113 12.922184
4.6807799 3.8136053 12.922184
4.6180859 3.8892889 12.922184
4.5541682 3.9639421 12.922184
4.4890437 4.0375452 12.922184
4.4398384 4.1259766 12.972169
4.3699856 4.1956754 12.965921
4.2866054 4.2518582 12.922184
4.2168303 4.3210683 12.922184
4.1459374 4.389133 12.922184
4.0877357 4.471117 12.965921
4.0008759 4.5217557 12.922184
3.9267457 4.5862789 12.922184
3.8739226 4.6765652 12.997162
3.7772088 4.7139411 12.928432
3.7196496 4.8001819 12.997162
3.6427748 4.8624268 13.00341
3.5408893 4.890336 12.922184
3.4624937 4.9497156 12.928432
3.3831029 5.0078378 12.93468
3.2979531 5.0573502 12.922184
3.2151978 5.1103606 12.922184
3.1315908 5.1620173 12.922184
3.0471539 5.2123065 12.922184
2.9619098 5.2612143 12.922184
2.8772714 5.311295 12.928432
2.7904384 5.3574247 12.928432
2.7015598 5.3995242 12.922184
2.6158412 5.4480453 12.93468
2.5463467 5.5323324 13.034651
2.4347689 5.52496 12.922184
2.3445168 5.563859 12.922184
2.2547331 5.603992 12.928432
2.162173 5.6372237 12.922184
2.0701296 5.6716704 12.922184
1.9775379 5.7046146 12.922184
1.8844221 5.7360473 12.922184
1.790807 5.7659602 12.922184
1.6967174 5.7943449 12.922184
1.6037277 5.8268242 12.93468
1.5072147 5.8465023 12.922184
1.4125344 5.8730989 12.928432
1.316751 5.8953128 12.928432
1.2200289 5.9131055 12.922184
1.1236198 5.9321804 12.922184
1.026913 5.9496837 12.922184
0.92993426 5.9656105 12.922184
0.83270901 5.9799566 12.922184
0.73561871 5.995616 12.928432
0.63762254 6.0038924 12.922184
0.53981292 6.0134754 12.922184
0.44186029 6.0214653 12.922184
0.34395683 6.0307741 12.928432
0.24574855 6.035574 12.928432
0.14740391 6.0358558 12.922184
0.049566653 6.0900021 13.034651
-0.049162738 6.0403748 12.928432
-0.14740391 6.0358558 12.922184
-0.24705501 6.0676603 12.997162
-0.34395683 6.0307741 12.928432
-0.44186029 6.0214653 12.922184
-0.53981292 6.0134754 12.922184
-0.63793081 6.0067954 12.928432
-0.73597425 5.9985137 12.93468
-0.8331117 5.9828482 12.928432
-0.92993426 5.9656105 12.922184
-1.026913 5.9496837 12.922184
-1.1241632 5.9350486 12.928432
-1.2241583 5.9331193 12.965921
-1.316751 5.8953128 12.928432
-1.4118516 5.8702607 12.922184
-1.5072147 5.8465023 12.922184
-1.602953 5.8240094 12.928432
-1.6967174 5.7943449 12.922184
-1.7968682 5.7854757 12.965921
-1.8908002 5.7554617 12.965921
-1.9775379 5.7046146 12.922184
-2.0701296 5.6716704 12.922184
-2.1768095 5.675384 13.009659
-2.2612712 5.6202421 12.965921
-2.3456504 5.5665493 12.928432
-2.4430099 5.5436602 12.965921
-2.5402436 5.519073 13.00341
-2.6234229 5.4638357 12.972169
-2.7093973 5.4151888 12.959673
-2.7985299 5.3729596 12.965921
-2.8772714 5.311295 12.928432
-2.9719348 5.2790217 12.965921
-3.0574675 5.2299485 12.965921
-3.140676 5.1769934 12.959673
-3.2260802 5.1276579 12.965921
-3.3091156 5.0744677 12.965921
-3.3831029 5.0078378 12.93468
-3.4725342 4.9640684 12.965921
-3.5528741 4.9068885 12.965921
-3.6217704 4.8343897 12.928432
-3.6981916 4.7724905 12.922184
-3.7772088 4.7139411 12.928432
-3.8627486 4.6630759 12.959673
-3.9628205 4.6284127 13.040899
-4.0356975 4.5611105 13.034651
-4.1094036 4.4948173 13.034651
-4.1740026 4.4188442 13.009659
-4.2311025 4.3356934 12.965921
-4.3011141 4.2662497 12.965921
-4.3552446 4.1815224 12.922184
-4.4227304 4.1100783 12.922184
-4.4912143 4.0394974 12.928432
-4.5673804 3.9754422 12.959673
-4.6471143 3.9137363 13.00341
-4.7102022 3.8375769 13.00341
-4.7880931 3.7730489 13.047148
-4.8604832 3.70346 13.078388
-4.87781 3.5926924 12.965921
-4.9475341 3.5212843 12.997162
-5.009006 3.4435947 13.009659
-5.0181799 3.3309319 12.890943
-5.0692744 3.2472353 12.884695
-5.1537442 3.1842406 12.965921
-5.1747928 3.0820055 12.890943
-5.2242727 2.9973674 12.890943
-5.2877016 2.9204032 12.928432
-5.3500051 2.8421664 12.965921
-5.3929582 2.7533805 12.959673
-5.4527888 2.6729448 12.997162
-5.5008574 2.5863199 13.009659
-5.5555353 2.502435 13.040899
-5.6142979 2.4197648 13.084637
-5.636744 2.3213902 13.047148
-5.6928024 2.2368069 13.090885
-5.7202539 2.1407793 13.072141
-5.7075844 2.030751 12.965921
-5.7592444 1.9441158 13.009659
-5.6900158 1.818127 12.784724
-5.8194733 1.7556244 13.009659
-5.8135791 1.6510977 12.93468
-5.7691612 1.5374576 12.778476
-5.7934217 1.4433495 12.778476
-5.8104601 1.3475398 12.765979
-5.831624 1.2527846 12.765979
-5.9285665 1.1729964 12.93468
-5.9095292 1.0695828 12.853454
-5.9059906 0.96994013 12.809716
-5.9036674 0.87112314 12.772227
-5.9575896 0.78022122 12.859702
-6.0188069 0.68878907 12.965921
-5.9420576 0.58218986 12.778476
-6.0002117 0.48942882 12.884695
-6.0102963 0.39188871 12.890943
-6.0333738 0.29486245 12.928432
-5.9294152 0.19310251 12.697249
-5.9317732 0.096564047 12.697249
-5.7578149 0.093732163 12.777096
-5.7611909 0.18762396 12.789671
-5.7715259 0.28206542 12.821108
-5.76617 0.37597096 12.821108
-5.7592864 0.4697769 12.821108
-5.7536969 0.56373465 12.827395
-5.7409434 0.65699053 12.821108
-5.7137132 0.84309423 12.81482
-5.7188072 0.93919909 12.858832
-5.7825012 1.1440966 13.078895
-5.7658834 1.2386618 13.085182
-5.7946463 1.3438723 13.198357
-5.7225099 1.4256828 13.085182
-5.7122369 1.5222875 13.116619
-5.6867023 1.6150637 13.116619
-5.6922159 1.7172334 13.192069
-5.6311193 1.7993078 13.116619
-5.6333046 1.9016029 13.192069
-5.5535498 1.9759458 13.078895
-5.5206518 2.0660789 13.078895
-5.4862909 2.1556647 13.078895
-5.4321346 2.2371256 13.034883
-5.3950014 2.3252478 13.034883
-5.3409367 2.4057713 12.997157
-5.3010702 2.4923868 12.997157
-5.247077 2.5721054 12.96572
-5.1868491 2.6481514 12.921707
-5.1605759 2.7415328 12.96572
-5.1152682 2.8251681 12.96572
-5.0981007 2.9249773 13.041169
-5.0644231 3.0162716 13.078895
-4.9857278 3.0804319 13.003445
-4.9349275 3.1611762 13.003445
-4.9229555 3.2677245 13.110332
-4.8434281 3.3297634 13.041169
-4.804749 3.4196608 13.085182
-4.7347608 3.4873314 13.047457
-4.6751165 3.5622194 13.041169
-4.6120634 3.6343365 13.028595
-4.5522966 3.7089252 13.028595
-4.506496 3.7953093 13.072607
-4.4184732 3.8458333 12.997157
-4.355289 3.917243 12.997157
-4.3179364 4.0126925 13.078895
-4.2520499 4.0824437 13.078895
-4.1850371 4.1511135 13.078895
-4.1307693 4.2328796 13.122907
-4.0593777 4.2974954 13.116619
-3.9888895 4.3630004 13.116619
-3.9154668 4.4252272 13.110332
-3.8208029 4.4625421 13.034883
-3.7458525 4.5219598 13.028595
-3.6735244 4.5845432 13.034883
-3.5984154 4.6437297 13.034883
-3.5121586 4.6880784 12.997157
-3.4553282 4.7721677 13.072607
-3.3788185 4.8300996 13.078895
-3.2981653 4.8821087 13.072607
-3.2383847 4.9660034 13.154345
-3.1178894 4.9556952 12.99087
-3.0382824 5.0082111 12.997157
-2.9563615 5.0570016 12.997157
-2.8750474 5.1069217 13.003445
-2.7901917 5.1505504 12.997157
-2.7059865 5.1952839 12.997157
-2.6210647 5.2386408 12.997157
-2.544034 5.2984915 13.041169
-2.4574537 5.3391986 13.041169
-2.3702221 5.3784914 13.041169
-2.2735596 5.3954678 12.99087
-2.1854365 5.4317598 12.99087
-2.1038382 5.4851332 13.034883
-2.0201077 5.5346222 13.072607
-1.9251125 5.5533829 13.041169
-1.8344653 5.5839825 13.041169
-1.7424915 5.6103959 13.034883
-1.6509404 5.6380153 13.034883
-1.553688 5.6450157 12.99087
-1.462306 5.6723008 12.997157
-1.370447 5.6981068 13.003445
-1.2843125 5.7500801 13.072607
-1.1905484 5.7702231 13.072607
-1.100688 5.811111 13.122907
-1.002581 5.8087096 13.078895
-0.9100824 5.8382587 13.110332
-0.8149327 5.8522987 13.110332
-0.71335542 5.8141603 12.997157
-0.61892331 5.8278193 13.003445
-0.52499557 5.8484111 13.028595
-0.4286947 5.842051 12.997157
-0.33354706 5.8482547 12.997157
-0.23831105 5.8529091 12.997157
-0.14308107 5.8588457 13.003445
-0.048136104 5.9142375 13.122907
0.047974661 5.894402 13.078895
0.1430119 5.8560128 12.997157
0.23842633 5.8557405 13.003445
0.33548334 5.8822045 13.072607
0.4286947 5.842051 12.997157
0.52372879 5.8342991 12.997157
0.61892331 5.8278193 13.003445
0.71784163 5.8507247 13.078895
0.80828863 5.8045855 13.003445
0.90746361 5.8214593 13.072607
1.002581 5.8087096 13.078895
1.096469 5.788837 13.072607
1.1905484 5.7702231 13.072607
1.2768999 5.7168927 12.997157
1.3697844 5.6953516 12.997157
1.4757466 5.7244372 13.116619
1.5597039 5.6668725 13.041169
1.6461624 5.6216979 12.997157
1.7374485 5.5941586 12.997157
1.8282741 5.5651369 12.997157
1.9306813 5.5694475 13.078895
2.0269089 5.553256 13.116619
2.1109416 5.5036535 13.078895
2.2065911 5.4843383 13.116619
2.2878647 5.4294157 13.072607
2.3770785 5.3940501 13.078895
2.4704864 5.3675146 13.110332
2.5366747 5.2831645 13.003445
2.6362803 5.2690516 13.072607
2.7151499 5.2128768 13.041169
2.7996399 5.1679916 13.041169
2.8917291 5.1365533 13.078895
2.9563615 5.0570016 12.997157
3.0382824 5.0082111 12.997157
3.1299615 4.9748831 13.041169
3.2182624 4.9351459 13.072607
3.3013377 4.8868051 13.085182
3.3804429 4.8324218 13.085182
3.4453571 4.7583961 13.034883
3.5461392 4.7334361 13.122907
3.588001 4.63029 12.997157
3.6859281 4.6000228 13.078895
3.736814 4.5110488 12.997157
3.8226459 4.464695 13.041169
3.8816667 4.3870263 12.997157
3.9544721 4.3253551 13.003445
4.0457563 4.2830753 13.072607
4.1169152 4.2186832 13.078895
4.1971083 4.1630869 13.116619
4.2254767 4.0569305 12.997157
4.2909513 3.9876151 12.997157
4.3953204 3.953248 13.116619
4.4206104 3.8476937 13.003445
4.4826536 3.7752299 13.003445
4.543509 3.7017658 13.003445
4.6031609 3.6273208 13.003445
4.6638465 3.5536323 13.009732
4.7165079 3.4738872 12.997157
4.7724271 3.3966565 12.997157
4.8294172 3.3201313 13.003445
4.8828192 3.2410831 13.003445
4.9373136 3.1627047 13.009732
4.9857278 3.0804319 13.003445
5.0352077 2.9988711 13.003445
5.0808949 2.9151058 12.997157
5.1301517 2.8333881 13.003445
5.175591 2.7495096 13.003445
5.217135 2.6636138 12.997157
5.2623439 2.5795891 13.003445
5.3010702 2.4923868 12.997157
5.3409367 2.4057713 12.997157
5.3793874 2.3185182 12.997157
5.4190335 2.2317302 13.003445
5.4546413 2.143229 13.003445
5.4888039 2.0541601 13.003445
5.5241823 1.9654968 13.009732
5.5527577 1.8744133 13.003445
5.5798326 1.7829204 12.997157
5.610827 1.6926799 13.003445
5.6349092 1.6003542 12.997157
5.66295 1.5091527 13.003445
5.6840143 1.416092 12.997157
5.711832 1.3246664 13.009732
5.7298665 1.2309245 13.003445
5.7491431 1.1374966 13.003445
5.7641082 1.0432626 12.997157
5.7831216 0.94976139 13.003445
5.7978148 0.85550392 13.003445
5.8109717 0.76101977 13.003445
5.8225889 0.66633397 13.003445
5.8326635 0.57147163 13.003445
5.8383684 0.47622749 12.997157
5.8481741 0.38131788 13.003445
5.8507757 0.28593853 12.997157
5.8574872 0.19076002 13.003445
5.8626494 0.095438771 13.009732
5.8605924 0 13.003445
5.6796885 0 13.075954
5.6816831 0.092492804 13.082279
5.6794248 0.1849611 13.082279
5.6701732 0.27711216 13.069629
5.6676536 0.3695474 13.075954
5.6608872 0.46175063 13.075954
5.6526217 0.55383152 13.075954
5.642858 0.64576566 13.075954
5.6343236 0.73788548 13.082279
5.6215668 0.8294974 13.082279
5.604609 0.92044431 13.075954
5.5888844 1.0115484 13.075954
5.5743747 1.1029177 13.082279
5.5529976 1.1929284 13.075954
5.5328445 1.2831563 13.075954
5.5138917 1.3737085 13.082279
5.4881468 1.4625683 13.075954
5.4636135 1.551705 13.075954
5.4560461 1.6459854 13.120234
5.4128284 1.7295575 13.082279
5.3813558 1.8165541 13.075954
5.3510752 1.9039056 13.075954
5.3193765 1.9907526 13.075954
5.2862682 2.0770721 13.075954
5.2517595 2.1628411 13.075954
5.2158594 2.2480376 13.075954
5.2086391 2.3461792 13.151861
5.1846795 2.4376636 13.189815
5.1443148 2.5217314 13.189815
5.1025872 2.6051311 13.189815
5.0158315 2.664638 13.075954
4.9717946 2.7459276 13.075954
4.9264407 2.8264894 13.075954
4.9057484 2.921768 13.145535
4.8598785 3.0026758 13.151861
4.7825966 3.0635974 13.075954
4.7595673 3.1592717 13.151861
4.7075133 3.2363245 13.151861
4.6318269 3.2965877 13.088605
4.599678 3.3878374 13.151861
4.5592232 3.4739139 13.19614
4.4589128 3.5136526 13.069629
4.4032607 3.5875001 13.075954
4.3442836 3.6586964 13.075954
4.2841554 3.7289236 13.075954
4.2228923 3.7981627 13.075954
4.1605105 3.8663952 13.075954
4.0990081 3.9355063 13.082279
4.0324564 3.9997694 13.075954
3.9687369 4.0668421 13.082279
3.9001286 4.1289053 13.075954
3.8324058 4.1918402 13.075954
3.7636678 4.253665 13.075954
3.7260978 4.3519306 13.189815
3.6337349 4.3866124 13.113908
3.5515442 4.4323125 13.075954
3.4974418 4.5134239 13.145535
3.4053922 4.5455651 13.075954
3.3309531 4.6003923 13.075954
3.2729557 4.6787663 13.145535
3.1779089 4.7040992 13.069629
3.1009195 4.7552028 13.069629
3.0406663 4.8329539 13.145535
2.9715736 4.8982501 13.189815
2.8664908 4.9032736 13.075954
2.7849529 4.9468875 13.069629
2.7132249 5.0084739 13.113908
2.6376889 5.0641575 13.145535
2.5401573 5.0769339 13.069629
2.4512374 5.1052227 13.038
2.3735592 5.1569247 13.069629
2.3026016 5.2250471 13.145535
2.2183156 5.2643666 13.151861
2.1200268 5.2691884 13.075954
2.0349636 5.3055634 13.082279
1.9473935 5.3354025 13.075954
1.8593915 5.3637972 13.069629
1.7735538 5.3985724 13.082279
1.6838167 5.4214773 13.069629
1.5961206 5.4508038 13.075954
1.5071865 5.4760613 13.075954
1.419225 5.5051894 13.088605
1.3287867 5.5248895 13.082279
1.2374845 5.5404234 13.069629
1.1482496 5.5652137 13.082279
1.0570014 5.5804667 13.075954
0.97163624 5.6294227 13.151861
0.87437612 5.6092 13.069629
0.78978056 5.6716728 13.183489
0.69802749 5.6892309 13.19614
0.59952831 5.6451945 13.069629
0.50805354 5.6596785 13.082279
0.41546172 5.6617179 13.069629
0.3232511 5.6677303 13.069629
0.2311784 5.6777315 13.082279
0.13873154 5.6807423 13.082279
0.046203207 5.6767526 13.069629
-0.046628088 5.7289553 13.189815
-0.13940234 5.70821 13.145535
-0.23240799 5.7079301 13.151861
-0.3232511 5.6677303 13.069629
-0.41546172 5.6617179 13.069629
-0.50756222 5.6542053 13.069629
-0.59952831 5.6451945 13.069629
-0.69167012 5.6374154 13.075954
-0.78295952 5.6226888 13.069629
-0.87437612 5.6092 13.069629
-0.96556097 5.5942245 13.069629
-1.0564901 5.5777669 13.069629
-1.1471392 5.5598316 13.069629
-1.2374845 5.5404234 13.069629
-1.3275018 5.5195465 13.069629
-1.4171673 5.4972076 13.069629
-1.5064574 5.4734125 13.069629
-1.5953484 5.4481668 13.069629
-1.6838167 5.4214773 13.069629
-1.7718388 5.393352 13.069629
-1.8602914 5.3663931 13.075954
-1.9464514 5.3328214 13.069629
-2.0339797 5.3029981 13.075954
-2.1200268 5.2691884 13.075954
-2.2055125 5.2339826 13.075954
-2.2893057 5.1948762 13.069629
-2.3735592 5.1569247 13.069629
-2.4583731 5.1200843 13.075954
-2.5487633 5.0941343 13.113908
-2.6237271 5.0373521 13.075954
-2.7223861 5.0253849 13.158187
-2.7943881 4.9636469 13.113908
-2.8651042 4.9009013 13.069629
-2.9444964 4.8536167 13.069629
-3.0231085 4.8050466 13.069629
-3.1114254 4.7713132 13.113908
-3.1886756 4.7200365 13.113908
-3.2839804 4.6945262 13.189815
-3.33901 4.6115198 13.107582
-3.4152765 4.5587592 13.113908
-3.4890268 4.5025649 13.113908
-3.5498261 4.4301682 13.069629
-3.6232183 4.3739171 13.075954
-3.6921453 4.3122754 13.069629
-3.761847 4.2516069 13.069629
-3.8305519 4.1898127 13.069629
-3.8982418 4.1269078 13.069629
-3.9764128 4.074708 13.107582
-4.0675693 4.0345984 13.189815
-4.1346836 3.9697587 13.19614
-4.1826501 3.8869696 13.145535
-4.2596641 3.8312356 13.189815
-4.282083 3.7271197 13.069629
-4.382112 3.6905551 13.189815
-4.4011302 3.5857646 13.069629
-4.4589128 3.5136526 13.069629
-4.5417395 3.4605923 13.145535
-4.5709181 3.3666549 13.069629
-4.6407809 3.3029606 13.113908
-4.6939282 3.2269852 13.113908
-4.745832 3.1501548 13.113908
-4.81036 3.081382 13.151861
-4.8458538 2.9940107 13.113908
-4.8939452 2.9147382 13.113908
-4.9574223 2.8442647 13.158187
-4.9717946 2.7459276 13.075954
-5.0449486 2.6801064 13.151861
-5.0879045 2.597635 13.151861
-5.1270447 2.5132658 13.145535
-5.1697602 2.4306493 13.151861
-5.1460099 2.3179684 12.993721
-5.1855807 2.2349875 13.000047
-5.2670031 2.1691191 13.113908
-5.2964973 2.0810914 13.101256
-5.2833505 1.9772699 12.987395
-5.3174229 1.891932 12.993721
-5.3475132 1.80513 12.993721
-5.3761868 1.7178496 12.993721
-5.4034362 1.630114 12.993721
-5.4424691 1.5456997 13.02535
-5.4695621 1.4576156 13.031675
-5.4925632 1.3683947 13.031675
-5.5114322 1.2781904 13.02535
-5.5503111 1.1923513 13.069629
-5.568984 1.1018511 13.069629
-5.5699587 1.0081229 13.031675
-5.5503836 0.91153884 12.949442
-5.5644855 0.82107472 12.949442
-5.5743885 0.7300362 12.943116
-5.5909925 0.63983017 12.955768
-5.5951972 0.5482052 12.943116
-5.6061172 0.45728314 12.949442
-5.5936255 0.36472058 12.905163
-5.6015654 0.27375916 12.911489
-5.6025329 0.18245697 12.905163
-5.6047606 0.09124057 12.905163
-5.4625816 0.088926017 13.063236
-5.4604101 0.17782848 13.063236
-5.4567924 0.26668382 13.063236
-5.4172096 0.35321775 12.980523
-5.4293079 0.44286102 13.025061
-5.402842 0.52935869 12.980523
-5.4093723 0.61904567 13.018698
-5.3827491 0.70493865 12.980523
-5.3705616 0.79246002 12.980523
-5.3727059 0.88235885 13.018698
-5.3550134 0.96921939 13.012336
-5.343749 1.0572873 13.025061
-5.3232298 1.1435684 13.018698
-5.3039107 1.2300628 13.018698
-5.3012605 1.3207344 13.063236
-5.2790608 1.4068478 13.063236
-5.2554622 1.4925885 13.063236
-5.2304711 1.5779338 13.063236
-5.2040944 1.6628609 13.063236
-5.2091136 1.7584112 13.145948
-5.1447043 1.830479 13.056873
-5.146626 1.9261014 13.139586
-5.1170697 2.0105908 13.145948
-5.0541401 2.0814552 13.069598
-5.0635757 2.1824033 13.184124
-5.0443654 2.2721837 13.228662
-5.0043049 2.3528576 13.2223
-4.9940162 2.4480555 13.29865
-4.941658 2.5229688 13.266837
-4.9116869 2.6093116 13.29865
-4.8708935 2.6901999 13.305012
-4.7987638 2.7532361 13.228662
-4.7510271 2.8296192 13.2223
-4.6907582 2.8981848 13.184124
-4.6429629 2.9741521 13.184124
-4.5939379 3.0493314 13.184124
-4.5283461 3.1131506 13.139586
-4.4770737 3.1864457 13.139586
-4.4396124 3.2699432 13.184124
-4.3604007 3.3224208 13.107774
-4.3559046 3.4324815 13.260474
-4.2870798 3.4928432 13.2223
-4.2031999 3.5398777 13.139586
-4.1731243 3.6322823 13.228662
-4.1114707 3.6979473 13.2223
-4.0409884 3.7553227 13.190487
-4.000442 3.840872 13.260474
-3.9506187 3.9185956 13.305012
-3.8491435 3.9442925 13.177761
-3.7844324 4.0064225 13.177761
-3.7097414 4.0576711 13.145948
-3.6432033 4.117517 13.145948
-3.5756998 4.1762719 13.145948
-3.5055518 4.2318707 13.139586
-3.4378691 4.2904468 13.145948
-3.3789876 4.3605595 13.190487
-3.3059678 4.4128518 13.184124
-3.2337019 4.4660788 13.184124
-3.1804078 4.5464668 13.266837
-3.0866194 4.5689678 13.184124
-3.0045741 4.6074591 13.152311
-2.9277635 4.6535015 13.145948
-2.8502507 4.6982651 13.139586
-2.7733996 4.7440362 13.139586
-2.6958137 4.7885504 13.139586
-2.6187809 4.8341351 13.145948
-2.5397489 4.8761206 13.145948
-2.4588535 4.9144344 13.139586
-2.3796873 4.9562044 13.145948
-2.2975876 4.9918647 13.139586
-2.217104 5.0310364 13.145948
-2.1349199 5.0664577 13.145948
-2.0511775 5.0980678 13.139586
-1.9679248 5.1307793 13.139586
-1.890537 5.1796288 13.184124
-1.8007487 5.1946301 13.145948
-1.7167878 5.2257805 13.152311
-1.6307113 5.2504911 13.145948
-1.5450332 5.2763386 13.145948
-1.4582396 5.2982225 13.139586
-1.3724717 5.323833 13.145948
-1.285634 5.3454676 13.145948
-1.1984558 5.3656855 13.145948
-1.1098845 5.3792696 13.133224
-1.0231698 5.4018517 13.145948
-0.93465585 5.4151678 13.139586
-0.84638959 5.4296637 13.139586
-0.75789899 5.4427209 13.139586
-0.66953164 5.4569774 13.145948
-0.58033895 5.4645066 13.139586
-0.49155438 5.4758787 13.145948
-0.40196911 5.4778471 13.133224
-0.3150259 5.5235133 13.228662
-0.22367083 5.4933457 13.145948
-0.13416123 5.4935985 13.139586
-0.044746019 5.4977155 13.145948
0.044746019 5.4977155 13.145948
0.13416123 5.4935985 13.139586
0.22367083 5.4933457 13.145948
0.31290466 5.4863205 13.139586
0.40235859 5.4831543 13.145948
0.49155438 5.4758787 13.145948
0.58567822 5.5147815 13.260474
0.67374426 5.491312 13.228662
0.76266992 5.4769826 13.2223
0.85171753 5.4638433 13.2223
0.93510848 5.4177899 13.145948
1.0325787 5.4515262 13.266837
1.1114976 5.3870878 13.152311
1.2094766 5.4150276 13.266837
1.2850118 5.3428802 13.139586
1.3771216 5.3418698 13.190487
1.4624764 5.3136158 13.177761
1.5495199 5.2916608 13.184124
1.6307113 5.2504911 13.145948
1.7209404 5.2384205 13.184124
1.8007487 5.1946301 13.145948
1.8896247 5.1771293 13.177761
1.9736422 5.1456861 13.177761
2.0521708 5.1005363 13.145948
2.1349199 5.0664577 13.145948
2.217104 5.0310364 13.145948
2.306488 5.0112023 13.190487
2.39466 4.9873886 13.228662
2.4612348 4.9191937 13.152311
2.5397489 4.8761206 13.145948
2.6251183 4.8458333 13.177761
2.697119 4.7908688 13.145948
2.7747426 4.7463331 13.145948
2.8681929 4.7278404 13.2223
2.9277635 4.6535015 13.145948
3.0220158 4.6342053 13.228662
3.0776818 4.555738 13.145948
3.1712563 4.5333843 13.228662
3.2446258 4.4811654 13.228662
3.2963951 4.4000745 13.145948
3.3789876 4.3605595 13.190487
3.4478526 4.3029056 13.184124
3.5072491 4.2339201 13.145948
3.5774305 4.1782932 13.152311
3.6555462 4.1314669 13.190487
3.7187188 4.0674906 13.177761
3.7862597 4.0083566 13.184124
3.8417096 3.9366748 13.152311
3.9033885 3.8717482 13.145948
3.9658918 3.8076999 13.145948
4.0273442 3.7426429 13.145948
4.1114707 3.6979473 13.2223
4.1711173 3.6305351 13.2223
4.205235 3.5415919 13.145948
4.2767649 3.4844394 13.190487
4.3182845 3.4028366 13.145948
4.3731003 3.3320971 13.145948
4.4288998 3.262053 13.152311
4.4792414 3.1879888 13.145948
4.5305386 3.1146579 13.145948
4.5806355 3.0405018 13.145948
4.6317596 2.9669757 13.152311
4.6794395 2.8911915 13.152311
4.7235932 2.8132799 13.145948
4.7687593 2.7360213 13.145948
4.8126612 2.6580379 13.145948
4.8552885 2.5793505 13.145948
4.8966293 2.4999793 13.145948
4.9366727 2.419946 13.145948
4.9754081 2.3392713 13.145948
5.0152512 2.2590697 13.152311
5.048914 2.176084 13.145948
5.0861259 2.0946281 13.152311
5.1170697 2.0105908 13.145948
5.1491179 1.9270341 13.145948
5.1798019 1.8429668 13.145948
5.2116351 1.7592622 13.152311
5.2370453 1.6733897 13.145948
5.2661366 1.5886934 13.152311
5.2912979 1.5027661 13.152311
5.3124866 1.4157556 13.145948
5.3348269 1.3290969 13.145948
5.3557539 1.2420861 13.145948
5.3804646 1.1558639 13.158674
5.3959556 1.0676167 13.152311
5.4099998 0.97917151 13.145948
5.425221 0.89098346 13.145948
5.4416375 0.8029477 13.152311
5.4513478 0.7139225 13.145948
5.4622459 0.6250965 13.145948
5.4716969 0.53610492 13.145948
5.4796982 0.4469713 13.145948
5.4862475 0.35771924 13.145948
5.4913435 0.26837239 13.145948
5.4949841 0.17895444 13.145948
5.497169 0.089489073 13.145948
5.4978976 0 13.145948
5.3152547 0 13.213418
5.3145504 0.086516201 13.213418
5.3587418 0.17451745 13.328588
5.339767 0.26096454 13.290197
5.3373799 0.34801263 13.296596
5.3284431 0.43463361 13.290197
5.3206625 0.52130693 13.290197
5.3140297 0.60813475 13.296596
5.2676992 0.68987137 13.20702
5.2583184 0.77589786 13.213418
5.2754698 0.86638981 13.290197
5.2302771 0.94664299 13.213418
5.2141757 1.0316505 13.213418
5.2268891 1.1228719 13.290197
5.1753259 1.2002419 13.20702
5.1551037 1.2843214 13.20702
5.136003 1.3687235 13.213418
5.1130438 1.4521407 13.213418
5.0887303 1.5351732 13.213418
5.0630679 1.6177988 13.213418
5.0336256 1.6991727 13.20702
5.0077267 1.7817426 13.213418
4.9780617 1.8630171 13.213418
4.9758239 1.9550929 13.290197
4.9409618 2.0348451 13.283799
4.9119134 2.1170368 13.296596
4.8462968 2.1829658 13.213418
4.8101225 2.2615595 13.213418
4.7726741 2.3395541 13.213418
4.7339611 2.4169288 13.213418
4.7212691 2.508153 13.290197
4.6527824 2.5697367 13.213418
4.6371279 2.6604996 13.290197
4.5666733 2.7198212 13.213418
4.5217977 2.7937925 13.213418
4.4757242 2.8670235 13.213418
4.4413309 2.9480352 13.251808
4.3948784 3.0213943 13.258206
4.3576984 3.1014838 13.296596
4.3045664 3.1704767 13.290197
4.2401071 3.2307625 13.251808
4.1869583 3.2993505 13.251808
4.1227231 3.3589358 13.219816
4.0655351 3.4239385 13.213418
4.0073237 3.4879696 13.20702
3.9519331 3.5544558 13.213418
3.904866 3.6288228 13.251808
3.8471391 3.6936839 13.258206
3.7718887 3.7413142 13.20702
3.7122893 3.8040555 13.213418
3.6481118 3.8621054 13.20702
3.5969219 3.9342706 13.251808
3.5307019 3.9903688 13.24541
3.4770005 4.0609951 13.290197
3.400588 4.1051598 13.251808
3.333318 4.1599669 13.251808
3.2635882 4.2116375 13.24541
3.1961462 4.2662611 13.251808
3.126281 4.3177195 13.251808
3.0541122 4.3659248 13.24541
2.9840844 4.4171906 13.251808
2.9033554 4.4522419 13.213418
2.8305018 4.49891 13.213418
2.7568982 4.5443859 13.213418
2.6903579 4.6019893 13.251808
2.6075194 4.6317139 13.213418
2.5464952 4.7006993 13.290197
2.4696448 4.7415257 13.290197
2.3760169 4.7488713 13.200622
2.3128872 4.8170791 13.283799
2.2341735 4.8540878 13.283799
2.1569436 4.8945208 13.296596
2.074991 4.9242373 13.283799
1.9839966 4.9310942 13.213418
1.9016272 4.9579282 13.200622
1.8215576 4.9906416 13.20702
1.7409267 5.0220618 13.213418
1.6629689 5.0619597 13.24541
1.5765382 5.076067 13.213418
1.4937065 5.1010561 13.213418
1.4227726 5.1693602 13.328588
1.3268775 5.1469727 13.213418
1.2429247 5.1678882 13.213418
1.1620088 5.2025061 13.251808
1.0740533 5.2056065 13.213418
0.99157447 5.2350435 13.24541
0.90623248 5.2504897 13.24541
0.8206504 5.264545 13.24541
0.73556083 5.2823033 13.258206
0.64885664 5.2884669 13.24541
0.56133145 5.285531 13.213418
0.47683552 5.3119121 13.258206
0.39125237 5.3318038 13.290197
0.30250975 5.3040609 13.20702
0.21760158 5.3442855 13.296596
0.13052118 5.3445463 13.290197
0.043385219 5.3305206 13.251808
-0.043385219 5.3305206 13.251808
-0.12976713 5.3136702 13.213418
-0.21676391 5.3237123 13.24541
-0.30265629 5.3066306 13.213418
-0.38880366 5.2984347 13.20702
-0.47660542 5.3093486 13.251808
-0.56133145 5.285531 13.213418
-0.64697605 5.2731395 13.20702
-0.73307604 5.2644591 13.213418
-0.81866831 5.2518296 13.213418
-0.90404367 5.2378082 13.213418
-0.98917955 5.2223992 13.213418
-1.0802944 5.2358551 13.290197
-1.164814 5.2150655 13.283799
-1.2537581 5.2129321 13.328588
-1.3345877 5.1768804 13.290197
-1.4104788 5.1246934 13.213418
-1.4980462 5.1158762 13.251808
-1.5811186 5.0908151 13.251808
-1.6693953 5.081521 13.296596
-1.7501999 5.0488119 13.283799
-1.8339124 5.0244904 13.296596
-1.9090009 4.9771528 13.251808
-1.9897609 4.9454207 13.251808
-2.0689943 4.9100065 13.24541
-2.1559055 4.8921657 13.290197
-2.2212601 4.8260317 13.20702
-2.300633 4.7915568 13.213418
-2.3852301 4.7672853 13.251808
-2.4613221 4.7255468 13.24541
-2.5317838 4.673543 13.213418
-2.6226709 4.6586275 13.290197
-2.689059 4.5997677 13.24541
-2.7809277 4.5839949 13.328588
-2.8469491 4.5250516 13.290197
-2.9202261 4.4781127 13.290197
-2.9927292 4.429987 13.290197
-3.0467358 4.3553796 13.213418
-3.1172245 4.3052111 13.213418
-3.1961462 4.2662611 13.251808
-3.2840827 4.2380857 13.328588
-3.3445837 4.1740265 13.296596
-3.4202905 4.1289444 13.328588
-3.4569135 4.0375338 13.213418
-3.5221741 3.980731 13.213418
-3.5865018 3.9228733 13.213418
-3.6816916 3.897655 13.328588
-3.7356582 3.8280017 13.296596
-3.7718887 3.7413142 13.20702
-3.8341429 3.6812062 13.213418
-3.9161782 3.6393354 13.290197
-3.9615014 3.5630615 13.24541
-4.0422688 3.5183856 13.322189
-4.0773473 3.4338863 13.251808
-4.1327 3.3670645 13.251808
-4.2112169 3.3184667 13.328588
-4.2278237 3.2214031 13.213418
-4.2796984 3.1521602 13.213418
-4.3535047 3.0984988 13.283799
-4.4054832 3.0286846 13.290197
-4.4284649 2.9394948 13.213418
-4.4605532 2.8573055 13.168631
-4.5064707 2.7843227 13.168631
-4.5511937 2.7106023 13.168631
-4.5947113 2.6361635 13.168631
-4.6505294 2.5684924 13.20702
-4.6917205 2.4924555 13.20702
-4.7454224 2.4227805 13.24541
-4.8142729 2.3599458 13.328588
-4.8660231 2.287842 13.366977
-4.9026175 2.2083349 13.366977
-4.9119134 2.1170368 13.296596
-4.9433417 2.0358253 13.290197
-4.9925923 1.9616815 13.334986
-5.021451 1.8792553 13.328588
-5.0683484 1.8033117 13.373375
-5.0823979 1.7156364 13.334986
-5.0777779 1.6224991 13.251808
-5.1182995 1.5440936 13.290197
-5.1452303 1.4612819 13.296596
-5.1956906 1.3846301 13.366977
-5.1875706 1.2924101 13.290197
-5.1602821 1.196753 13.168631
-5.2294054 1.1234125 13.296596
-5.2444739 1.0376452 13.290197
-5.2302771 0.94664299 13.213418
-5.2145152 0.85637927 13.136639
-5.243041 0.77364361 13.175029
-5.2702513 0.69020563 13.213418
-5.2782302 0.60403788 13.20702
-5.3360319 0.52281272 13.328588
-5.2976599 0.43212268 13.213418
-5.2885818 0.34483084 13.175029
-5.3551912 0.26171836 13.328588
-5.343307 0.17401479 13.290197
-5.3608723 0.087270282 13.328588
-5.1286292 0.083489567 13.271919
-5.1241059 0.16687609 13.265487
-5.138093 0.25110838 13.310516
-5.1308441 0.33454591 13.304084
-5.1445427 0.41963312 13.355546
-5.1345563 0.50307262 13.349113
-5.1281576 0.58686364 13.355546
-5.1327167 0.67219377 13.394143
-5.1333928 0.75746429 13.426308
-5.1228371 0.8413229 13.43274
-5.0913391 0.92149621 13.387711
-5.0634713 1.001833 13.355546
-5.0464935 1.0841181 13.355546
-5.0257568 1.1655545 13.349113
-5.008532 1.2478051 13.355546
-4.9899602 1.3298037 13.361979
-4.9652624 1.4101697 13.355546
-4.9440317 1.4915204 13.361979
-4.9001536 1.565743 13.310516
-4.8740191 1.6452951 13.310516
-4.8465929 1.7244114 13.310516
-4.8178825 1.8030708 13.310516
-4.8040934 1.8876168 13.355546
-4.7428474 1.9532552 13.271919
-4.7401066 2.0429878 13.355546
-4.6880908 2.1117034 13.304084
-4.6283488 2.1760955 13.233322
-4.621336 2.2653685 13.316949
-4.5838504 2.3402898 13.316949
-4.5583239 2.4215891 13.355546
-4.4769545 2.4726267 13.233322
-4.4749303 2.5674405 13.349113
-4.4090509 2.6259449 13.278352
-4.3530345 2.6895223 13.239755
-4.3212414 2.7680662 13.278352
-4.3004694 2.8545353 13.355546
-4.2513881 2.9227471 13.349113
-4.1910982 2.9829099 13.310516
-4.1419902 3.0507331 13.310516
-4.0898075 3.1162412 13.304084
-4.0404954 3.1839368 13.310516
-3.9765706 3.2398601 13.271919
-3.9252105 3.3057587 13.278352
-3.8933861 3.3887982 13.355546
-3.8136809 3.4301085 13.271919
-3.759165 3.4934218 13.278352
-3.7125649 3.5644779 13.316949
-3.6416986 3.6121793 13.271919
-3.5841572 3.6727557 13.278352
-3.523901 3.7306085 13.278352
-3.4627111 3.7874727 13.278352
-3.3989565 3.8414714 13.271919
-3.3375957 3.8981757 13.278352
-3.2721169 3.9500706 13.271919
-3.2089429 4.0047474 13.278352
-3.1433327 4.0564489 13.278352
-3.0768895 4.1070752 13.278352
-3.0096314 4.1566138 13.278352
-2.9401505 4.2030134 13.271919
-2.8713486 4.2503133 13.271919
-2.803144 4.2985697 13.278352
-2.732805 4.343627 13.278352
-2.6604524 4.3854074 13.271919
-2.5899737 4.4302769 13.278352
-2.5382528 4.5086765 13.387711
-2.4443974 4.5122323 13.278352
-2.3706281 4.5514216 13.278352
-2.2962308 4.5894055 13.278352
-2.221225 4.626173 13.278352
-2.1445911 4.6594567 13.271919
-2.0694678 4.6960216 13.278352
-1.9927567 4.7290845 13.278352
-1.9145896 4.7585874 13.271919
-1.8368806 4.7891207 13.271919
-1.7595373 4.8207207 13.278352
-1.6800233 4.8463726 13.271919
-1.6016924 4.8754382 13.278352
-1.5213856 4.898489 13.271919
-1.4421501 4.9249892 13.278352
-1.3617952 4.9478106 13.278352
-1.2810794 4.9693213 13.278352
-1.2000242 4.9895148 13.278352
-1.1181092 5.0059605 13.271919
-1.0364792 5.0234966 13.271919
-0.9550373 5.0421443 13.278352
-0.87283999 5.0570216 13.278352
-0.78964555 5.0656457 13.265487
-0.70743048 5.0802903 13.271919
-0.62858099 5.1232114 13.355546
-0.54169416 5.100625 13.271919
-0.45837742 5.1062903 13.265487
-0.37556571 5.1180334 13.278352
-0.29206833 5.1209865 13.271919
-0.20988926 5.1548715 13.349113
-0.12528814 5.1302652 13.278352
-0.041746166 5.1291389 13.271919
0.041766401 5.1316247 13.278352
0.12522744 5.12778 13.271919
0.20857438 5.1225781 13.265487
0.29291773 5.135879 13.310516
0.37520179 5.1130748 13.265487
0.46148938 5.1409569 13.355546
0.54510742 5.1327643 13.355546
0.62494785 5.0935998 13.278352
0.71154517 5.109839 13.349113
0.79041141 5.070559 13.278352
0.87199426 5.0521216 13.265487
0.96058947 5.0714574 13.355546
1.0364792 5.0234966 13.271919
1.1186512 5.0083866 13.278352
1.2000242 4.9895148 13.278352
1.288527 4.9982104 13.355546
1.3736705 4.9909573 13.394143
1.4421501 4.9249892 13.278352
1.5213856 4.898489 13.271919
1.6102279 4.9014201 13.349113
1.6906092 4.8769097 13.355546
1.774881 4.8627586 13.394143
1.8377709 4.7914419 13.278352
1.9322215 4.8024101 13.394143
2.0033762 4.7542858 13.349113
2.0694678 4.6960216 13.278352
2.1456306 4.661715 13.278352
2.221225 4.626173 13.278352
2.2962308 4.5894055 13.278352
2.3694797 4.5492167 13.271919
2.4657133 4.55158 13.394143
2.5260565 4.4870119 13.323382
2.5887189 4.4281306 13.271919
2.661742 4.3875332 13.278352
2.7566359 4.3815045 13.394143
2.803144 4.2985697 13.278352
2.8977916 4.2894554 13.394143
2.9487009 4.2152367 13.310516
3.0096314 4.1566138 13.278352
3.0768895 4.1070752 13.278352
3.1433327 4.0564489 13.278352
3.2089429 4.0047474 13.278352
3.2737029 3.9519851 13.278352
3.3375957 3.8981757 13.278352
3.3989565 3.8414714 13.271919
3.4828417 3.8094912 13.355546
3.523901 3.7306085 13.278352
3.5841572 3.6727557 13.278352
3.6522892 3.622684 13.310516
3.7107716 3.5627561 13.310516
3.7719133 3.5052688 13.323382
3.8377111 3.4517219 13.355546
3.8821344 3.3790047 13.316949
3.93662 3.3153679 13.316949
4.0016274 3.2602744 13.355546
4.0307317 3.1762431 13.278352
4.0937624 3.1192548 13.316949
4.1319814 3.0433612 13.278352
4.1931238 2.9843516 13.316949
4.2411447 2.915705 13.316949
4.2880416 2.8462858 13.316949
4.3358955 2.7774534 13.323382
4.3784146 2.7052035 13.316949
4.4240031 2.63485 13.323382
4.4770865 2.5686777 13.355546
4.5052462 2.4882522 13.316949
4.5473461 2.4157572 13.323382
4.597136 2.3470726 13.355546
4.6347303 2.2719345 13.355546
4.6575971 2.189847 13.316949
4.7062249 2.1198721 13.355546
4.6990104 2.0252755 13.239755
4.7727323 1.9655627 13.355546
4.7902098 1.8821616 13.316949
4.8178825 1.8030708 13.310516
4.8629889 1.7302451 13.355546
4.8905077 1.6508613 13.355546
4.8741035 1.5574192 13.239755
4.9416513 1.4908023 13.355546
4.922214 1.3979437 13.239755
4.9875579 1.3291636 13.355546
5.008532 1.2478051 13.355546
5.0160694 1.1633078 13.323382
5.0464935 1.0841181 13.355546
5.0488381 0.99893773 13.316949
5.0644288 0.91662562 13.316949
5.0786777 0.83407068 13.316949
5.106338 0.75347221 13.355546
5.1179261 0.67025673 13.355546
5.1133375 0.58516765 13.316949
5.1246591 0.50210291 13.323382
5.1470203 0.41983524 13.361979
5.1506915 0.33583999 13.355546
5.1554756 0.25195789 13.355546
5.1414995 0.16744256 13.310516
5.1435442 0.083732374 13.310516
5.1467118 0 13.316949
4.9931164 0 13.463598
4.9492955 0.080570176 13.347207
4.9904709 0.16252401 13.463598
4.9440508 0.24162515 13.347207
4.9657855 0.32378358 13.418335
4.9216156 0.40144926 13.314876
4.9120426 0.48127118 13.30841
4.9011755 0.56088793 13.301944
4.905663 0.64245826 13.340741
4.9111629 0.72467285 13.386004
4.8963504 0.80412704 13.379538
4.8684545 0.88115567 13.340741
4.853467 0.96028256 13.340741
4.8653283 1.0451992 13.418335
4.8196383 1.1177522 13.340741
4.7868447 1.1925749 13.301944
4.8085084 1.2814475 13.418335
4.7454906 1.3477529 13.301944
4.7229242 1.4248165 13.301944
4.7425084 1.5153706 13.424801
4.7172146 1.5923635 13.424801
4.6612997 1.6584843 13.340741
4.6494083 1.74002 13.386004
4.6316299 1.8198528 13.418335
4.5880904 1.8895214 13.379538
4.5303001 1.9525613 13.301944
4.4979186 2.0260422 13.301944
4.4925566 2.1122506 13.386004
4.4705 2.1914291 13.424801
4.4321022 2.2628145 13.418335
4.3565636 2.314405 13.301944
4.3204141 2.3861694 13.30841
4.2893224 2.4609499 13.334274
4.2754817 2.5463934 13.418335
4.2355075 2.6169083 13.424801
4.1661005 2.6686873 13.340741
4.1101227 2.728188 13.301944
4.0651712 2.7947268 13.301944
4.0425882 2.8772116 13.379538
4.0087361 2.9525864 13.424801
3.9239044 2.9898312 13.301944
3.8747194 3.0533042 13.301944
3.8598309 3.1447477 13.424801
3.7732823 3.1778071 13.301944
3.7319105 3.24825 13.340741
3.6999402 3.3278077 13.418335
3.6136639 3.3582065 13.301944
3.5585237 3.4165809 13.301944
3.5228715 3.4943156 13.379538
3.477252 3.5632081 13.424801
3.4089129 3.6088753 13.386004
3.3497198 3.6638839 13.386004
3.2880502 3.716126 13.379538
3.2271273 3.7691531 13.379538
3.1668792 3.8230283 13.386004
3.1027327 3.8721976 13.379538
3.039294 3.9221878 13.379538
2.9678612 3.9615426 13.347207
2.9015796 4.0073833 13.340741
2.8428402 4.0639062 13.373072
2.777658 4.1116276 13.379538
2.7038157 4.1462512 13.347207
2.6423542 4.1998606 13.379538
2.574887 4.2443643 13.386004
2.4897268 4.2588 13.301944
2.4353702 4.3259268 13.386004
2.3634923 4.3628855 13.379538
2.2932725 4.402905 13.386004
2.2073536 4.4117694 13.301944
2.1487443 4.4752169 13.386004
2.0806301 4.5204911 13.418335
1.9942029 4.5252309 13.334274
1.9212129 4.5593009 13.340741
1.8467468 4.5899682 13.340741
1.7778028 4.6350927 13.386004
1.7062331 4.6746798 13.418335
1.6244195 4.6859722 13.373072
1.5434401 4.6981225 13.334274
1.4674758 4.7249126 13.340741
1.3903741 4.7481728 13.340741
1.3135405 4.7724867 13.347207
1.2350862 4.7909131 13.340741
1.1563803 4.8080502 13.334274
1.0779666 4.8262353 13.334274
1.0002365 4.8478394 13.347207
0.92030334 4.8587656 13.334274
0.8419112 4.8778276 13.347207
0.76203406 4.8885159 13.340741
0.68203223 4.8978968 13.334274
0.60630745 4.9416723 13.424801
0.52275264 4.9222708 13.347207
0.44234937 4.9277391 13.340741
0.36208215 4.9342861 13.340741
0.281719 4.9395261 13.340741
0.20128119 4.9434571 13.340741
0.12079005 4.9460788 13.340741
0.040247388 4.9449916 13.334274
-0.040247388 4.9449916 13.334274
-0.1208486 4.9484758 13.347207
-0.20176899 4.9554377 13.373072
-0.28335756 4.968256 13.418335
-0.36190665 4.9318948 13.334274
-0.44234937 4.9277391 13.340741
-0.52224618 4.9175014 13.334274
-0.60397118 4.9226308 13.373072
-0.68633181 4.9287734 13.418335
-0.76240343 4.8908854 13.347207
-0.84925294 4.9203639 13.463598
-0.92610502 4.8893957 13.418335
-1.0002365 4.8478394 13.347207
-1.0784893 4.8285756 13.340741
-1.1642309 4.840692 13.424801
-1.2428685 4.8211007 13.424801
-1.3205403 4.7979198 13.418335
-1.3903741 4.7481728 13.340741
-1.476011 4.7523942 13.418335
-1.5576608 4.7414093 13.457132
-1.6204922 4.674643 13.340741
-1.6963665 4.6476474 13.340741
-1.7709326 4.6171808 13.334274
-1.8467468 4.5899682 13.340741
-1.9202816 4.5570912 13.334274
-1.9951699 4.5274253 13.340741
-2.0665932 4.4899936 13.327808
-2.1549723 4.4881878 13.424801
-2.2320328 4.4610949 13.450666
-2.2866259 4.3901439 13.347207
-2.3703458 4.3755364 13.418335
-2.4271352 4.3112988 13.340741
-2.5115118 4.2960644 13.418335
-2.5736432 4.2423139 13.379538
-2.641077 4.1978312 13.373072
-2.7195344 4.1703558 13.424801
-2.7696035 4.0997052 13.340741
-2.8524623 4.077661 13.418335
-2.9015796 4.0073833 13.340741
-2.9664233 3.9596233 13.340741
-3.029012 3.9089189 13.334274
-3.1117299 3.883426 13.418335
-3.1745281 3.832262 13.418335
-3.2380447 3.7819042 13.424801
-3.2785156 3.7053502 13.340741
-3.338393 3.651495 13.340741
-3.4171464 3.6175919 13.418335
-3.477252 3.5632081 13.424801
-3.533087 3.5044482 13.418335
-3.6017694 3.4581017 13.463598
-3.6347435 3.3777959 13.379538
-3.6963742 3.3246005 13.405403
-3.7536166 3.267143 13.418335
-3.7842877 3.1870756 13.340741
-3.8356624 3.1250567 13.340741
-3.8841369 3.0607255 13.334274
-3.9353492 2.9985514 13.340741
-3.9932895 2.9412093 13.373072
-4.0425882 2.8772116 13.379538
-4.0908608 2.8123879 13.386004
-4.1340981 2.7441022 13.379538
-4.2024474 2.6919703 13.457132
-4.2477479 2.6244709 13.463598
-4.2528181 2.5328951 13.347207
-4.2914023 2.4621434 13.340741
-4.3561001 2.4058788 13.418335
-4.3692703 2.3211553 13.340741
-4.3936582 2.2431867 13.301944
-4.4554272 2.1840405 13.379538
-4.4903865 2.1112304 13.379538
-4.4935455 2.0240724 13.289011
-4.5303001 1.9525613 13.301944
-4.5570474 1.8767368 13.289011
-4.591455 1.8040671 13.301944
-4.6179657 1.7282526 13.295477
-4.6454844 1.6528573 13.295477
-4.6717725 1.577024 13.295477
