# .PCD v0.7 - Point Cloud Data file format
VERSION 0.7
FIELDS x y z
SIZE 4 4 4
TYPE F F F
COUNT 1 1 1
WIDTH 820
HEIGHT 1
VIEWPOINT 0 0 0 1 0 0 0
POINTS 820
DATA ascii
0.50002891 2.4234865 1.5514871
0.32798901 2.3553965 1.4910395
0.17895837 2.438761 1.5331696
0.019461952 2.3911908 1.4992824
-0.13616148 2.3873901 1.4992824
-0.28996262 2.363323 1.4928713
-0.44094238 2.3279669 1.4855442
-0.5911119 2.2929296 1.4846284
-0.73859233 2.2482228 1.4837126
-0.90021008 2.2374134 1.5121045
-1.0628474 2.2136056 1.5395807
-1.2268379 2.1792214 1.5679728
-1.3476766 2.0666373 1.5469077
-2.726476 3.6393385 2.8511093
-2.8862379 3.3710084 2.782419
-3.2514701 3.3318448 2.9188838
-3.5254452 3.1708632 2.9729202
-3.8493471 3.0333107 3.0727503
-3.9843836 2.7391868 3.0315361
-4.4076824 2.6251295 3.2165422
-4.8996024 2.5014973 3.4491737
-5.1203947 2.2068923 3.4958832
-5.3136907 1.8906041 3.5361814
-10.724419 3.0458109 6.9899344
-10.839885 2.3286896 6.951468
-11.332601 1.6721963 7.1822677
-11.686735 0.95327055 7.3517041
-1.2661356 0.020611573 0.8938545
-1.3252873 0.10810183 0.93859696
-11.292766 1.6663184 8.0576162
-11.157663 2.3969567 8.0556278
-10.987549 3.1205418 8.0625877
-5.39853 1.92079 4.0447164
-5.1017165 2.1988418 3.9214263
-4.8499861 2.4761655 3.8438725
-4.5708914 2.7223337 3.7553821
-4.3736315 3.0067871 3.7464335
-4.0625186 3.2012911 3.6509831
-3.5618055 3.2035663 3.3815341
-2.0806842 2.1321177 2.1028945
-3.0368688 3.5469389 3.2960262
-1.4830139 1.9795476 1.7459494
-1.3210659 2.0258303 1.7071726
-1.1657264 2.0706697 1.6773443
-0.99377698 2.0697517 1.6206706
-0.85647762 2.1287191 1.6196762
-0.71308082 2.1705675 1.6127163
-0.57034242 2.2123647 1.6127163
-0.41915783 2.2129548 1.589848
-0.27428433 2.235538 1.589848
-0.1287297 2.2570848 1.5958136
0.018491417 2.2719462 1.6037679
0.16957453 2.3108823 1.6355847
0.32248616 2.3158789 1.6504989
0.46821544 2.2692964 1.6355847
0.64814126 2.3548918 1.7240753
0.80690861 2.3276937 1.7389895
0.95172685 2.2585778 1.7300409
0.76703447 1.533048 1.2100344
0.9092319 1.5552858 1.2716795
1.8963575 2.8070831 2.3912349
2.0370193 2.6287589 2.3474867
2.3493516 2.6552172 2.5025938
2.5721376 2.5512879 2.5572789
2.4203184 2.106642 2.2649617
2.8626072 2.1811724 2.5403762
2.2508979 1.4940851 1.9070221
3.1472604 1.805705 2.5612562
3.2049582 1.5710633 2.5194964
3.362905 1.3849511 2.5672216
3.5780144 1.2078102 2.6656551
3.8518174 1.0264934 2.8138022
4.1260023 0.81635004 2.9689093
4.4511003 0.58292753 3.1687589
8.6836987 0.56620228 6.1426396
6.3971176 0 5.0608149
6.2035193 0.81242877 4.9495649
3.9117198 0.7739532 3.1545854
3.6884463 0.98295563 3.0198014
3.380944 1.1412863 2.8229742
3.212002 1.3228045 2.7480943
3.1264129 1.5325605 2.7545125
3.0998259 1.7784899 2.8272531
3.0518944 2.0257649 2.8978541
2.8490899 2.1708727 2.8336713
2.5335164 2.2051694 2.6571686
2.4288297 2.4091418 2.7063754
2.2615569 2.5559921 2.6999571
1.9604272 2.5299175 2.532012
1.904448 2.8190589 2.6913993
1.6153094 2.7630658 2.532012
1.0491238 2.0968511 1.8548834
0.95720083 2.2715685 1.9500879
0.77770048 2.2434371 1.8784171
0.62398404 2.2671213 1.860232
0.45684558 2.2141902 1.7885611
0.30528468 2.1923494 1.7511212
0.16347753 2.2277954 1.7671669
0.017850073 2.1931474 1.7350755
-0.12426836 2.1788619 1.7265178
-0.26461944 2.1567647 1.7190298
-0.40262657 2.1256776 1.7115418
-0.53940493 2.0923579 1.7094023
-0.68706149 2.0913665 1.7414937
-0.82218456 2.0434861 1.7425635
-0.9551571 1.9893177 1.7457726
-1.1004777 1.9547689 1.7746549
-1.2305025 1.8869529 1.7821429
-1.3749911 1.8353573 1.8142343
-1.5495361 1.8097951 1.8848354
-3.4432282 3.5283432 3.9001758
-3.6655028 3.296834 3.9001758
-3.882864 3.0597222 3.9108729
-4.2007413 2.8879287 4.0328202
-4.325141 2.5759695 3.9825437
-4.5594516 2.3278327 4.0499358
-5.5443954 2.3896368 4.7762713
-10.501061 3.736264 8.8176489
-20.258854 5.7536583 16.660789
-16.242201 3.4892473 13.142501
-16.444174 2.4264412 13.149989
-1.4123837 0.11520615 1.1210599
-21.100302 0.34349433 18.656174
-1.3389589 0.109217 1.1876366
-20.786314 3.0671508 18.575094
-19.615719 4.2139668 17.736897
-19.343464 5.493681 17.776865
-5.342628 1.9009 5.0131969
-5.3108292 2.2889695 5.1125474
-4.3890347 2.2408264 4.3565712
-4.1606884 2.4780247 4.2812018
-3.8735499 2.6629908 4.1555862
-2.0454035 1.6117915 2.3021879
-3.5295289 3.174536 4.1966968
-3.3804564 3.4640195 4.2789178
-1.5256473 1.781894 2.0737963
-1.3429679 1.7926123 1.9801557
-1.1973796 1.8361595 1.9379033
-1.0563625 1.8764074 1.9036446
-0.91526282 1.9062294 1.8693858
-0.78833079 1.9593447 1.8671019
-0.64829063 1.9733509 1.836269
-0.51819897 2.0100994 1.835127
-0.38631433 2.0395565 1.835127
-0.25389367 2.0693452 1.8431207
-0.11878785 2.0827694 1.8442627
0.017052282 2.0951269 1.8522564
0.1568328 2.137244 1.8945088
0.2978757 2.1391432 1.9093543
0.43877649 2.126615 1.919632
0.58924007 2.1408861 1.9630264
0.76536554 2.2078543 2.0658026
0.92996931 2.2069445 2.1171908
1.0536753 2.1059482 2.08179
1.4805295 2.5325184 2.5933874
1.8525933 2.742301 2.9256973
1.9368963 2.4995511 2.7955141
2.0372186 2.3024468 2.7178609
2.3542085 2.3351254 2.931407
2.4076166 2.0955865 2.821779
2.5779076 1.9642445 2.8651733
2.9004259 1.9252242 3.0775776
3.0374711 1.7427145 3.095849
3.2174962 1.5772094 3.1677923
3.1401095 1.2931968 3.0022085
3.2065823 1.0824279 2.9919307
3.3563395 0.89445055 3.0707259
3.6709964 0.72632492 3.3082533
3.9089999 0.51193267 3.4852569
6.3547659 0.41434914 5.6298547
5.8832426 0.77048457 5.852983
3.3842549 1.142404 3.5234134
3.1937969 1.315307 3.4071772
3.0860193 1.5127597 3.3902261
2.8777804 1.651094 3.272779
2.6200593 1.7391244 3.1020567
2.4349616 1.8553265 3.0197227
2.3507493 2.0460892 3.0742085
2.1629665 2.1454339 3.0051932
1.9260668 2.1768241 2.8671627
1.8540311 2.3926141 2.9858205
1.6456425 2.435962 2.8998539
1.3956938 2.3874025 2.7279212
1.3159395 2.6301277 2.9010649
1.1477423 2.7237494 2.9155943
0.91301197 2.6337709 2.7497156
0.57294273 2.0816731 2.1297884
0.426364 2.0664554 2.0813565
0.28457421 2.0436206 2.0353465
0.15262051 2.0798409 2.0571408
0.016343458 2.0080373 1.9808606
-0.11574143 2.029355 2.0050766
-0.24678823 2.0114326 1.9990226
-0.37051415 1.9561391 1.9639095
-0.50374585 1.9540356 1.9905469
-0.62981725 1.917119 1.9905469
-0.75321949 1.8720778 1.9905469
-0.8856492 1.8445528 2.0183952
-1.0074009 1.7894373 2.02566
-1.1431504 1.7530001 2.0644054
-1.2739213 1.7004479 2.0958862
-1.4561032 1.7006692 2.2084901
-3.302227 3.3838565 4.6639824
-3.542778 3.1864526 4.7003064
-3.6914999 2.908926 4.6361341
-3.881038 2.6681387 4.6458206
-4.0537982 2.4143629 4.6542959
-4.9445877 2.5244644 5.4764256
-18.393787 7.9277301 19.757753
-18.80471 6.6906915 19.688738
-15.507984 4.4043775 15.902582
-19.555107 4.2009463 19.729904
-14.93588 2.2038827 14.892778
-15.042733 1.2270145 14.887936
-18.095003 0.29457074 19.916092
-18.743601 1.5288893 20.69574
-18.607849 2.7457049 20.699568
-18.456656 3.9649701 20.774853
-18.103798 5.1416068 20.711052
-13.510921 4.807168 15.781794
-4.8736153 2.1005301 5.8403354
-4.4477916 2.2708247 5.4958105
-3.9917576 2.3774128 5.1130052
-3.7722402 2.5933423 5.0377197
-3.6364939 2.8655813 5.0951409
-3.5768268 3.2170768 5.2941995
-3.5648131 3.6529336 5.6170321
-2.8806915 3.3645303 4.8743896
-1.267355 1.6916832 2.3261812
-1.1020323 1.6899463 2.2202716
-0.97210795 1.7267469 2.1807151
-0.85518843 1.7811116 2.174335
-0.72839999 1.8103906 2.1475387
-0.60870206 1.852846 2.1462626
-0.47817379 1.8548415 2.1079822
-0.35820207 1.8911372 2.1181903
-0.23411432 1.9081346 2.1156383
-0.11197484 1.9633133 2.1641269
0.015778402 1.9386117 2.1335025
0.14459564 1.9704816 2.174335
0.27841502 1.9993895 2.2215476
0.41142932 1.9940716 2.2406881
0.5356859 1.9463079 2.2215476
0.93006694 2.6829693 3.1249685
1.0729463 2.5462484 3.0407515
1.2711046 2.5405176 3.1262445
1.4413167 2.4654431 3.1428328
1.573362 2.328969 3.0930681
1.7698566 2.2839875 3.1798375
1.867076 2.1101532 3.1007242
2.0045323 1.9882839 3.1071043
2.2993245 2.0013292 3.3546519
2.4311242 1.8524026 3.363584
2.4846718 1.6492579 3.2819188
2.6812534 1.5383387 3.4018645
2.8693655 1.4065565 3.5167062
3.0587997 1.2597109 3.64048
6.2450671 1.6642846 7.1125255
2.5585868 1.4679601 3.6257815
2.3960075 1.5904049 3.5348361
2.132268 1.8559232 3.4746516
1.9382406 1.9225295 3.3556201
2.0671709 2.3362987 3.8344212
1.9454365 2.5105722 3.9039676
1.5641702 2.3153627 3.4345286
1.3981261 2.3915634 3.4051051
1.1850283 2.3684793 3.2553124
1.1606615 2.7544084 3.6739292
0.86779535 2.5033343 3.25665
0.69181699 2.5135789 3.2044902
0.97797656 4.7399521 5.9489031
0.33975297 2.4398775 3.0279489
0.18410534 2.5089014 3.0921457
0.015479648 1.9019055 2.3378334
-0.10941534 1.9184363 2.3619072
-0.23321101 1.9007723 2.3538826
-0.34950528 1.8452222 2.3084097
-0.46882358 1.8185719 2.3084097
-0.58343822 1.7759447 2.2977104
-0.69815946 1.7352297 2.2990477
-0.82276928 1.7135918 2.3364959
-1.2218311 2.1703279 3.0613847
-1.4549546 2.2311461 3.2740366
-1.6022596 2.1387186 3.2847362
-2.8193283 3.2928605 5.3283343
-3.3627372 3.4458625 5.9181423
-3.1631818 2.8450356 5.2293639
-3.3176613 2.6143389 5.191916
-3.9012537 2.6820366 5.8191719
-4.073102 2.4258602 5.8271966
-4.2591348 2.1745057 5.8780193
-12.354417 5.3247585 16.536024
-16.088371 5.7242212 20.989677
-13.701149 3.8912234 17.507002
-16.970991 3.6458108 21.336073
-17.548994 2.5894642 21.804174
-16.872355 1.3762542 20.807787
-1.6587534 0.027003046 2.2833807
-16.373205 1.3355393 22.61063
-15.623005 2.3052723 21.736055
-15.4409 3.3171072 21.73745
-15.974199 4.5367861 22.856125
-15.655668 5.5702662 22.871468
-14.442945 6.2249155 21.646784
-3.960572 2.0220742 6.1206322
-3.8345451 2.2837801 6.1429496
-3.6778264 2.5284348 6.1429496
-3.1751871 2.5020683 5.5640841
-2.9694953 2.6708295 5.4971309
-2.7865951 2.8554785 5.4915514
-2.5981951 3.034586 5.4985256
-1.511763 2.0179224 3.4704039
-1.3938709 2.1374753 3.5122497
-1.1698121 2.0779269 3.2820983
-1.0549431 2.1971433 3.3546307
-0.92072117 2.2883923 3.3950818
-0.76924396 2.3415241 3.392292
-0.5816161 2.2560954 3.2067759
-0.43378007 2.2901533 3.2081709
-0.28496343 2.3225772 3.2207246
-0.14091654 2.4707634 3.4062405
0.018912656 2.3237016 3.1984069
0.17443943 2.3771789 3.2807033
0.31825751 2.2855115 3.176089
0.46813238 2.268894 3.1886427
0.65268403 2.371397 3.3853176
0.85438907 2.4646611 3.5903616
0.98618132 2.340343 3.4955113
1.1876062 2.3736317 3.6531303
1.2832681 2.1950932 3.499696
1.4443624 2.1380172 3.5513055
3.1179917 4.0237465 7.0063663
1.7319239 1.9574054 3.5973358
2.0304527 2.013994 3.9362862
2.1396086 1.8623126 3.9042044
2.1820853 1.6626467 3.7758775
2.382741 1.5815989 3.9362862
12.67373 7.271409 20.111046
13.119987 6.4313884 20.111046
13.455921 0 20.823933
13.396594 0.87349671 20.776144
13.365187 1.7503392 20.860136
13.21931 2.6155062 20.854343
12.996709 3.4635689 20.815245
12.748246 4.3033538 20.822485
12.43691 5.1219144 20.815245
12.077301 5.9202657 20.815245
11.666509 6.6935272 20.815245
10.274629 6.8200202 19.084743
2.1510236 1.6389791 4.18506
9.2497988 8.051013 18.977583
8.7017117 8.631176 18.967445
8.1012259 9.1559353 18.919659
7.4711361 9.641449 18.876215
6.8248439 10.102474 18.867525
2.354213 4.0269971 7.2188668
1.0613992 2.1213858 3.6709783
1.7626692 4.1830549 7.0248189
0.75181079 2.1687529 3.5522327
0.59520292 2.1625512 3.4711382
0.45058876 2.1838653 3.4508646
0.30366966 2.1807513 3.4074209
0.16777886 2.286412 3.5478883
0.018414868 2.2625411 3.5015485
-0.1311269 2.2991164 3.5638177
-0.27383113 2.2318439 3.4798269
-0.39930952 2.108165 3.320534
-0.55268294 2.1438632 3.4262464
-0.69771898 2.1238072 3.4595532
-0.86306626 2.1450949 3.5782988
-0.97691125 2.0346253 3.4928598
-1.120995 1.9912136 3.5363035
-1.2788452 1.9610856 3.6231904
-2.3490925 3.1356018 6.0632687
-2.6430707 3.0869989 6.289175
-2.8540101 2.9245598 6.3239303
-3.0215507 2.7176492 6.289175
-3.2301896 2.5454106 6.3644772
-3.4290586 2.3574114 6.4397793
-3.5398028 2.1082375 6.3760624
-10.854242 5.5416451 18.860285
-14.123816 6.0873699 23.801262
-12.722355 4.526597 20.897787
-11.786431 3.34743 18.961653
-13.199687 2.8356364 20.893442
-13.38584 1.9751648 20.939781
-14.47832 1.1809763 22.480579
-12.260262 0.19958629 21.463303
-12.221297 0.99687409 21.463303
-12.224457 1.8037953 21.629477
-12.031856 2.5847557 21.541151
-10.744783 3.0515947 19.551561
-11.616099 4.1329932 21.581572
-10.231629 4.4098363 19.502159
-9.8567533 5.0323758 19.371914
-3.2640247 1.9439894 6.6499262
-3.2983603 2.2675591 7.0062256
-3.1445048 2.4778905 7.0077229
-2.8119221 2.5291047 6.6199851
-2.6103468 2.6748734 6.5421381
-2.4469068 2.8578875 6.5855527
-2.2173147 2.9597027 6.4732738
-1.1870795 1.8203646 3.8040214
-1.0300398 1.8296506 3.6752744
-0.90140772 1.8773731 3.6453333
-0.78437012 1.9495007 3.6782684
-0.66387248 2.0207808 3.7231803
-0.53247869 2.0654907 3.7336595
-0.38040656 2.0083663 3.5779657
-0.24653113 2.0093372 3.5435333
-0.11795024 2.068083 3.6258714
0.017283572 2.1235445 3.7171919
0.15604071 2.1264498 3.7321625
0.29477471 2.1168737 3.7411449
0.42427972 2.0563536 3.6752744
0.5542264 2.0136709 3.6558127
0.68603182 1.979 3.666292
0.82596153 1.9601197 3.7231803
0.95480752 1.9083443 3.7351568
1.0700439 1.8303627 3.7112038
2.4038997 3.5583723 7.5167222
6.7940164 8.7676306 19.415329
7.3869219 8.3486357 19.512638
7.9320803 7.867784 19.556053
8.4465418 7.3518591 19.600964
8.9335213 6.8069243 19.659349
9.4023743 6.2410417 19.753664
9.7536564 5.5960498 19.683302
10.984085 5.3843737 21.412403
11.336449 4.6687098 21.46031
11.634024 3.9272318 21.493244
11.85002 3.1579814 21.466297
12.009409 2.3761213 21.428871
12.19962 1.5976937 21.536659
12.234198 0.79770511 21.46031
11.058368 0 22.074682
11.017982 0.71840435 22.040768
10.930283 1.4314578 22.005314
10.82762 2.1422985 22.03306
10.664542 2.8420563 22.031519
10.460686 3.5311546 22.039227
10.20591 4.2031178 22.03306
9.1175566 4.4694057 20.269552
8.788681 5.0424061 20.226389
8.4355412 5.5992837 20.210974
8.0527363 6.1358075 20.209433
7.6306238 6.641685 20.194017
7.1472263 7.0892916 20.09536
6.6841235 7.5543389 20.135439
6.1614108 7.9512572 20.079945
5.6284146 8.33146 20.070696
5.0634913 8.6613512 20.027533
4.4881773 8.9703808 20.022907
1.5191414 3.6051304 7.809381
1.2727559 3.6715262 7.756969
1.0289179 3.7383678 7.7400122
0.39494982 1.9142005 3.9016075
0.26882046 1.9304878 3.8908167
0.14219204 1.9377266 3.8784845
0.015580533 1.9143007 3.8214481
-0.10764282 1.8873577 3.7736607
-0.22767602 1.8556597 3.7320395
-0.34347644 1.813393 3.684252
-0.47500205 1.8425382 3.7983251
-0.61725903 1.8788927 3.9478533
-0.73848897 1.835466 3.9493949
-0.82860547 1.725747 3.8214481
-0.93913502 1.6681772 3.8214481
-5.4414401 8.344348 19.885712
-5.9820929 7.9849815 19.916542
-6.4899626 7.5800118 19.919626
-6.983964 7.1566048 19.961246
-7.4038033 6.6591439 19.878004
-7.8389802 6.1771679 19.922709
-8.2414675 5.6658497 19.964331
-8.596632 5.1199861 19.973579
-8.9163609 4.5522575 19.984369
-9.2319536 3.978976 20.067612
-9.5091162 3.3833311 20.147772
-9.653388 2.7416306 20.032158
-9.8347216 2.1127541 20.079945
-10.963595 1.6177472 22.122469
-10.057358 0.82036459 20.143147
-0.97045892 0.015798217 2.2345164
-9.7956095 0.79901409 22.626654
-8.8856716 1.3111366 20.678371
-8.7613869 1.882174 20.630928
-8.5655155 2.432667 20.499672
-8.4046164 2.9903514 20.537626
-8.1884565 3.529228 20.528137
-7.9433122 4.0554667 20.532883
-7.6614327 4.5629997 20.529718
-7.2883081 5.010571 20.362091
-7.0029631 5.5183806 20.526556
-6.6147718 5.9494715 20.482277
-6.2122154 6.3657784 20.477533
-5.7879915 6.7601385 20.488604
-5.3342333 7.1202092 20.482277
-4.8510261 7.4389586 20.445906
-1.5537857 2.7599759 7.2918301
-1.3551586 2.8224056 7.2080159
-3.3213396 8.2549725 20.485439
-2.7718346 8.4372683 20.445906
-2.2118483 8.5797844 20.398462
-0.31498095 1.6629502 3.8965666
-0.20678331 1.6853749 3.9092178
-0.097820945 1.7151457 3.9550784
0.014149544 1.7384824 4.0025206
0.64903641 8.8447638 20.41744
1.2260802 8.804884 20.466463
0.36574206 1.7726395 4.166986
0.48157933 1.7497224 4.1780558
2.9204996 8.4247818 20.528137
3.4630008 8.218174 20.531301
3.9999042 7.9944844 20.580324
4.4935608 7.6864557 20.498091
4.9853096 7.3795037 20.502836
5.4683552 7.0568738 20.55344
5.9323077 6.7046432 20.610371
6.396451 6.3446021 20.741627
6.7304235 5.8581519 20.54237
7.1410308 5.4411302 20.668882
7.4862204 4.9691501 20.686277
7.8282299 4.4913583 20.777998
8.8193359 4.3232188 22.612421
9.0851135 3.741538 22.620329
9.273509 3.1304064 22.533352
9.4442635 2.5168571 22.501724
8.8521814 1.7514482 20.774836
9.7101946 1.271672 22.546003
9.7709885 0.63709676 22.542839
8.5430813 0 23.035837
8.5094252 0.55483913 22.993807
8.471343 1.1094289 23.037455
8.3653288 1.6551219 22.993807
7.7005882 2.0521748 21.4888
7.4524784 2.5156913 21.209137
7.894979 3.2514031 23.022905
7.0465584 3.4542069 21.160641
6.7746396 3.8868725 21.060413
6.5293636 4.3340149 21.131542
6.245935 4.7591095 21.173573
5.8986306 5.1341605 21.086279
5.5269661 5.4821649 20.990902
5.1573672 5.8288121 20.986052
4.7653527 6.1496544 20.97797
4.359828 6.4536347 21.000601
3.9300807 6.7225957 20.997368
3.4773746 6.9501209 20.955338
3.0226872 7.1732502 20.989286
2.5436659 7.3377271 20.940788
2.0598941 7.4842138 20.931089
1.5683286 7.6012073 20.927856
1.069856 7.6829867 20.91654
0.56765372 7.7357192 20.914925
0.063128375 7.7562618 20.914925
-0.44060624 7.725379 20.864811
-0.94392854 7.6934328 20.900375
-1.4420532 7.613358 20.893909
-1.9385492 7.5196538 20.939173
-2.4194021 7.3644886 20.901991
-2.8985908 7.204258 20.939173
-3.3534074 6.9841833 20.890676
-3.7924907 6.736568 20.845413
-4.2316093 6.4890947 20.889059
-4.6541996 6.212491 20.931089
-5.0473819 5.8951364 20.926241
-5.4198337 5.5538092 20.924623
-5.7705979 5.1902027 20.927856
-6.0974822 4.8048558 20.932707
-6.3981767 4.398623 20.93594
-6.7109904 3.9969349 21.062031
-6.9413452 3.5439112 21.01515
-7.1577711 3.0850022 21.016768
-7.3455882 2.6135507 21.023233
-7.4891157 2.1269619 20.992519
-7.64153 1.6415995 21.074963
-7.68648 1.1341883 20.950489
-7.7637072 0.63327467 21.003834
-6.6509085 0.10827094 21.465393
-6.6190891 0.53990978 21.430809
-6.5411563 0.96518868 21.336937
-6.489943 1.3942087 21.420927
-6.3859682 1.8136603 21.422573
-6.2414494 2.2206995 21.378109
-6.0720181 2.6170423 21.336937
-5.8861475 3.0051789 21.327055
-5.6908593 3.3893647 21.374815
-5.4473386 3.74494 21.331995
-5.1921325 4.0914345 21.331995
-4.9156814 4.4212723 21.335289
-4.6168833 4.7310104 21.331995
-4.2923083 5.0132413 21.297411
-3.9558039 5.2802625 21.290823
-3.6102746 5.5362892 21.328701
-3.2371497 5.7501206 21.294117
-2.8554976 5.9471807 21.289177
-2.4626858 6.1208444 21.290823
-2.0593755 6.2685933 21.292471
-1.6513517 6.4056115 21.346817
-1.2289836 6.4884515 21.310587
-0.80607462 6.5698624 21.359993
-0.37602845 6.5931029 21.310587
0.053763442 6.6056399 21.317173
0.48456419 6.6034141 21.366579
0.91332757 6.5589046 21.369873
1.3387644 6.4885802 21.379755
1.7581053 6.3877249 21.379755
2.1706643 6.2617273 21.386343
2.5740769 6.1086364 21.391283
2.9660792 5.9282107 21.391283
3.3470571 5.7253056 21.401165
3.7141945 5.4979358 21.411045
4.0718608 5.2547078 21.452217
4.4081726 4.9820786 21.467039
4.7150183 4.6767988 21.430809
5.0201006 4.3694887 21.476921
5.2933569 4.0332894 21.475273
5.5356359 3.6744053 21.440689
5.7744899 3.3130479 21.483509
5.992022 2.9372756 21.534561
6.2242336 2.5633371 21.722305
6.3270564 2.1357889 21.549383
6.4654355 1.7230119 21.592201
6.6078992 1.3074057 21.737127
6.6526504 0.87124813 21.651489
7.2370934 0.47187945 23.403767
5.9505687 0 23.713055
5.494916 0.35828444 21.943773
5.9143333 0.77455628 23.769911
5.414217 1.0712297 21.99394
5.3212857 1.4181006 21.945444
5.2264891 1.7642765 21.982235
5.079669 2.091969 21.891932
4.9101834 2.4069607 21.791594
4.7624621 2.7324085 21.880226
4.5833282 3.042289 21.922033
4.3583136 3.3208301 21.835073
4.131743 3.5962639 21.828384
3.8878064 3.8562922 21.821695
3.6267133 4.0988803 21.80999
3.353107 4.3271608 21.815006
3.056704 4.5246859 21.759821
2.7562532 4.7147064 21.763165
2.4429007 4.8825498 21.756475
2.1193907 5.029604 21.749786
1.7864128 5.1532755 21.734735
1.4473311 5.2585883 21.734735
1.1022004 5.3420267 21.736408
0.75176638 5.3986812 21.721357
0.39894041 5.4365735 21.72303
0.044270258 5.439261 21.676207
-0.31032497 5.4410896 21.718014
-0.66185075 5.3943744 21.65781
-1.0114318 5.3398809 21.65781
-1.3600788 5.2757607 21.711325
-1.6991531 5.172102 21.694601
-2.0287848 5.0424118 21.659483
-2.3512974 4.8970766 21.647778
-2.6719418 4.7461467 21.704636
-2.9741697 4.5608344 21.697947
-3.2706556 4.3657169 21.738081
-3.5409565 4.1356926 21.696274
-3.8013687 3.8953366 21.689585
-4.0392747 3.6330125 21.64945
-4.2743478 3.3682141 21.686239
-4.466115 3.0703678 21.597609
-4.683104 2.7891655 21.721357
-4.8554049 2.4789321 21.724703
-5.0052514 2.1572654 21.719687
-5.145287 1.8306863 21.763165
-5.2199917 1.4825146 21.624365
-5.3279562 1.1445836 21.716341
-5.3732867 0.79286218 21.644432
-5.4335647 0.44320825 21.724703
-4.2417984 0.069052748 21.913822
-4.236156 0.3455373 21.954447
-4.2209067 0.62282127 22.039082
-4.1474104 0.89097166 21.912128
-4.088532 1.161172 21.954447
-4.0117269 1.4273672 21.995071
-3.9031327 1.6822517 21.954447
-3.7941625 1.9371136 22.005228
-3.660085 2.1798751 22.005228
-3.5032055 2.4083862 21.959524
-3.3401108 2.6320293 21.966295
-3.1739633 2.8547325 22.05093
-2.9709673 3.0444083 21.973066
-2.7663753 3.2310135 21.971373
-2.5463588 3.3989155 21.937519
-2.3258996 3.5667241 21.995071
-2.0884209 3.7096438 21.989994
-1.8393664 3.8308713 21.951061
-1.5893945 3.9503362 21.995071
-1.3271581 4.0397754 21.964603
-1.0614172 4.117249 21.96291
-0.79310995 4.1872449 22.013691
-0.51914704 4.2312765 22.020462
-0.24326256 4.2652493 22.067858
0.034791555 4.2746611 22.0814
0.31219998 4.2545152 22.035696
0.58740824 4.2183709 22.000149
0.86407405 4.1879015 22.088171
1.1353365 4.1250186 22.100019
1.4014314 4.042717 22.101711
1.6587006 3.9363234 22.064472
1.9152608 3.8279724 22.110176
2.1604338 3.695528 22.111868
2.3867655 3.5330093 22.023848
2.622622 3.3844752 22.116947
2.8390119 3.208627 22.130487
3.0343196 3.0097237 22.076321
3.232121 2.8132341 22.133873
3.4083147 2.5969758 22.133873
3.5695181 2.3693495 22.130487
3.7226529 2.1358299 22.16942
3.8625593 1.8934178 22.220201
3.9772666 1.6379646 22.21851
4.0688925 1.3735131 22.182962
4.1588206 1.1083084 22.23205
4.2221198 0.83536744 22.23205
4.2672014 0.55884367 22.230358
4.2873263 0.27954611 22.193119
3.0778358 0 22.392918
3.0783422 0.20071682 22.44416
3.0524745 0.39975992 22.398043
3.0264449 0.59879714 22.445869
2.9690483 0.79123902 22.355341
2.9161687 0.98439467 22.392918
2.8589652 1.1774126 22.495403
2.7872608 1.366309 22.584223
2.6651692 1.5291106 22.355341
2.5608132 1.6997983 22.362173
2.4440429 1.862246 22.355341
2.3300936 2.0281105 22.474907
2.1808634 2.1631854 22.348509
2.0347173 2.2996199 22.339968
1.8849518 2.4325171 22.389502
1.736486 2.5704331 22.568851
1.5496848 2.6508119 22.339968
1.3736116 2.7453947 22.334845
1.191799 2.8283021 22.32972
1.0036361 2.895195 22.29385
0.82098413 2.982882 22.509068
0.61975592 3.0037668 22.314346
0.42232344 3.0328431 22.278477
0.22397716 3.0522561 22.266521
0.024908345 3.0603614 22.266521
-0.17429277 3.0559661 22.269938
-0.37330228 3.0425777 22.302391
-0.57287878 3.0245287 22.396336
-0.76306319 2.9599307 22.239191
-0.95425326 2.9046793 22.244316
-1.1431513 2.8412278 22.281893
-1.3247797 2.7591355 22.268229
-1.5019557 2.6679108 22.275061
-1.6719754 2.5639434 22.269938
-1.8410261 2.4574273 22.339968
-1.9814426 2.3142443 22.165745
-2.1315908 2.1842828 22.20503
-2.2730341 2.0444171 22.242607
-2.3955209 1.8876861 22.189657
-2.5080431 1.7242312 22.143539
-2.624799 1.563279 22.227236
-2.7188604 1.3881171 22.210154
-2.803848 1.2084596 22.21357
-2.8763137 1.0233886 22.211863
-2.9304819 0.83227766 22.164036
-2.9832444 0.64087856 22.199905
-3.0237315 0.44617051 22.237484
-3.0398023 0.24795242 22.189657
-1.8341912 0.029859018 22.333408
-1.8355364 0.14972211 22.421043
-1.8156219 0.2679064 22.343719
-1.7944814 0.3855013 22.345436
-1.7662753 0.50163472 22.354029
-1.7290961 0.61521012 22.343719
-1.6896811 0.72825325 22.400425
-1.6325574 0.8335039 22.316225
-1.5787469 0.94027084 22.371212
-1.5143394 1.0410792 22.372931
-1.4498229 1.14247 22.472595
-1.3646507 1.227397 22.345436
-1.284659 1.3164152 22.393551
-1.1961929 1.3971045 22.391832
-1.1008942 1.469489 22.354029
-1.0053395 1.5416696 22.407297
-0.90151608 1.6013552 22.372931
-0.79877412 1.6636169 22.46744
-0.68789047 1.7097068 22.43651
-0.57549959 1.75178 22.448538
-0.46396542 1.799727 22.627247
-0.34320432 1.8119562 22.451975
-0.22521859 1.8356307 22.515554
-0.10548337 1.8494949 22.553358
0.015021902 1.8456645 22.470877
0.13539796 1.84514 22.524145
0.25771469 1.8507335 22.749249
0.37333649 1.8094473 22.493216
0.49128789 1.7849964 22.53961
0.61017793 1.7601838 22.680515
0.71875226 1.7056974 22.534456
0.83004147 1.6589782 22.584288
0.93636608 1.6017002 22.587725
1.036858 1.5348088 22.549921
1.1371164 1.4674407 22.601471
1.2252284 1.3847427 22.510399
1.315035 1.3043754 22.549921
1.3975432 1.2164198 22.556793
1.4794534 1.1272742 22.64443
1.5466069 1.0265958 22.599752
1.6103698 0.92393136 22.603189
1.6637777 0.81558007 22.558512
1.7129263 0.70543742 22.553358
1.7547945 0.59235609 22.548203
1.7857989 0.47590801 22.500088
1.8233641 0.36076167 22.628965
1.8348564 0.24029751 22.529301
1.8506879 0.1206702 22.579132
0.61915118 0 22.658783
