# .PCD v0.7 - Point Cloud Data file format
VERSION 0.7
FIELDS x y z
SIZE 4 4 4
TYPE F F F
COUNT 1 1 1
WIDTH 1544
HEIGHT 1
VIEWPOINT 0 0 0 1 0 0 0
POINTS 1544
DATA ascii
6.8861337 13.763103 2.7618048
1.410984 3.0655813 0.60561997
5.9655061 14.156962 2.756932
5.4966798 14.330959 2.7544956
5.0228534 14.489453 2.7520595
4.58078 14.74899 2.7715504
4.0748615 14.805196 2.7557139
3.5987356 14.962985 2.7618048
3.0988159 15.01901 2.7520595
2.5944564 15.031647 2.7374411
0.66110563 4.7476163 0.86022031
0.5083729 4.78687 0.86387485
0.34881526 4.7534914 0.85534757
0.20053399 4.925106 0.88458401
0.039343972 4.8339934 0.86752939
-0.12315898 5.0430813 0.90529311
-0.28376538 4.9754062 0.89432943
-0.43342438 4.8283153 0.86996579
-0.60027432 4.8924999 0.88458401
-0.75920528 4.870369 0.88458401
-0.93375427 4.92978 0.90042037
-1.0448917 4.6781535 0.86022031
-1.1644136 4.5167732 0.83707482
-1.3108158 4.4764786 0.83707482
-1.4473543 4.4056439 0.83220208
-1.5923169 4.3625755 0.83342028
-1.7537434 4.3588147 0.84316576
-1.9001666 4.3118448 0.8456021
-2.0630138 4.2966647 0.85534757
-2.2299972 4.2814212 0.86631125
-2.4780662 4.4017673 0.90651131
-2.6939666 4.4406514 0.93209314
-2.7703388 4.2482634 0.91016585
-2.9149323 4.1669636 0.91260219
-3.1426301 4.1948266 0.94062042
-3.2308137 4.032042 0.9272204
-4.19033 4.894135 1.1562389
-3.6283014 3.9685934 0.96498412
-4.3339529 4.4410863 1.1136025
-4.59373 4.4104948 1.142839
-4.2856717 3.8546274 1.0344206
-4.8553872 4.0891414 1.1391844
-4.9805832 3.924732 1.1379662
-5.0783644 3.7404082 1.1318753
-5.1191101 3.5192893 1.1148207
-5.1623578 3.3068616 1.1002024
-5.8796296 3.5017924 1.2281117
-5.6280298 3.108367 1.1538025
-5.6536751 2.8864896 1.1391844
-5.7876344 2.721153 1.1477116
-7.1074252 3.0633032 1.388912
-5.5796647 2.192353 1.0758388
-3.8957379 1.3860985 0.74205649
-6.7256556 2.1490443 1.2670937
-2.8414721 0.80699819 0.5300926
-2.8991678 0.72228682 0.53618348
-2.7751343 0.59617108 0.50938344
-2.8465059 0.51519734 0.51912892
-3.1236675 0.46091673 0.56663805
-4.8904791 0.55966383 0.88336581
-8.7625198 0.71474648 1.5777304
-3.1333859 0.15313452 0.56298351
-3.0891995 0.050289448 0.55445623
-3.1741753 0.051672779 0.65968859
-2.8403428 0.13881296 0.59093446
-2.8410494 0.23174042 0.59233761
-8.1585646 0.93366176 1.7064347
-2.9468708 0.43482926 0.6189974
-2.9843106 0.54013902 0.63022256
-3.0179615 0.64833665 0.64144772
-4.7184424 1.1755334 1.0104748
-2.9434011 0.83594674 0.63583511
-6.7094736 2.1438737 1.4636906
-5.9872499 2.1302557 1.3205699
-5.6696391 2.2277057 1.2658472
-5.6809363 2.4484859 1.2854912
-6.8509026 3.2210662 1.573136
-5.5937824 2.8559117 1.3051353
-5.4623952 3.0168867 1.2967163
-5.9008265 3.5144172 1.4272089
-5.1749268 3.3149133 1.2770723
-5.097671 3.5045505 1.2854912
-4.9537144 3.6485987 1.2784755
-5.0020423 3.9416423 1.3233762
-4.7368107 3.9892774 1.2868943
-4.6395941 4.1729531 1.2967163
-4.476954 4.2983766 1.2897006
-4.4006944 4.5094776 1.3093446
-4.196907 4.5905271 1.2925069
-3.4699719 4.0527859 1.1086949
-3.931555 4.9065642 1.3065383
-3.0491312 4.0700231 1.0567786
-2.9305196 4.1892462 1.0623912
-2.7667904 4.2428217 1.0525692
-2.6412311 4.3537235 1.0581818
-2.4914944 4.4256196 1.0553755
-2.261903 4.3426781 1.0174905
-2.0784352 4.328783 0.99784648
-1.911927 4.338531 0.98521823
-1.7520536 4.3546147 0.97539622
-1.607069 4.4029927 0.97399306
-1.4418271 4.3888192 0.95996159
-1.3209792 4.5111871 0.97679931
-1.1498432 4.4602547 0.95715529
-1.0217172 4.5743976 0.97399306
-0.87102431 4.5985956 0.97258991
-0.87480116 5.6119266 1.1802553
-0.58395123 4.759459 0.99644339
-0.42510098 4.7355933 0.98802447
-0.2734254 4.7941103 0.99784648
-0.11822319 4.8409715 1.0062654
0.039576076 4.8625107 1.0104748
0.19617973 4.8181658 1.0020559
0.34994024 4.7688217 0.99363708
0.50640434 4.7683334 0.99644339
2.0982974 15.068562 3.1614959
2.5876615 14.992278 3.1614959
3.0838342 14.946398 3.1713181
3.5797524 14.884056 3.1811399
4.0408239 14.681527 3.1643023
4.5185637 14.548669 3.1657054
4.9985695 14.419401 3.1713181
5.4676847 14.255364 3.1727211
5.931416 14.076062 3.1741242
6.3920898 13.887805 3.1769307
1.5473745 3.0926895 0.71862066
7.3175306 13.507786 3.1923652
7.8044443 13.349885 3.2134123
8.2672043 13.140217 3.2260406
8.6300545 12.774636 3.2035904
9.1006908 12.569 3.2246375
9.4925776 12.250104 3.220428
9.9810476 12.049032 3.2512972
10.327681 11.672256 3.2386689
10.753139 11.383904 3.2541034
3.3373363 3.3102841 0.97679931
16.689314 15.509512 4.7344213
3.443783 2.9974642 0.94873643
17.584551 14.326787 4.7133741
3.6261442 2.7629516 0.94733328
3.604131 2.5651507 0.9192704
3.7363477 2.4800863 0.93189871
3.8150938 2.3571556 0.93189871
4.2177777 2.4199021 1.0104748
1.7600021 0.93499327 0.41413823
3.6932945 1.8104447 0.85472572
3.7379537 1.6837237 0.85191941
3.6846371 1.5174506 0.82806599
3.8395841 1.436947 0.85191941
3.7371762 1.2615376 0.81964713
3.8473685 1.1606779 0.8350817
3.9875028 1.0626529 0.85753202
3.921313 0.90941602 0.83648485
4.0680666 0.80488718 0.86174142
3.8255877 0.62827587 0.80561566
3.7904499 0.49640703 0.7943905
3.7037973 0.36288998 0.77334332
3.7069087 0.24170117 0.77194017
3.7937963 0.12355208 0.78877789
3.7080278 0 0.77053702
3.6923087 0 0.87312061
3.777555 0.12302314 0.8937524
3.6911821 0.24067576 0.8747077
3.7682254 0.36920249 0.89533943
3.7608659 0.49253267 0.89692652
3.7693324 0.61903703 0.90327477
3.8393593 0.75963634 0.9254936
3.8649025 0.89633352 0.93819004
3.8466494 1.0251162 0.94136417
4.1389408 1.2486398 1.0223042
4.1787715 1.4106042 1.042936
3.8163579 1.4282546 0.96358299
3.7492292 1.5440516 0.95882183
3.7092228 1.6707822 0.96199596
3.7432694 1.8349422 0.98580182
3.7763913 2.006191 1.0111948
4.0816574 2.3418047 1.1127665
3.9347551 2.4310882 1.0937219
3.752888 2.4910653 1.0651548
3.6862199 2.6235754 1.069916
3.5081179 2.6730213 1.042936
3.5649416 2.9044905 1.0873736
16.949718 14.753014 5.3137121
3.3979056 3.1577005 1.0968959
11.136497 11.046227 3.7091954
10.724959 11.354072 3.6933248
10.300785 11.641859 3.6758671
9.8821373 11.929628 3.6631708
9.4721527 12.223747 3.6568224
9.0771275 12.536457 3.6599965
8.6116629 12.747413 3.6377778
8.1528616 12.958477 3.6203201
7.719974 13.205395 3.617146
7.2764626 13.431976 3.6123848
6.8323979 13.655703 3.6107976
6.3927083 13.889149 3.6155589
5.9007483 14.003283 3.5933402
5.4370131 14.175397 3.5901661
4.9683318 14.332175 3.5869918
4.4972019 14.479889 3.5854049
4.0217233 14.612128 3.5838177
3.55182 14.767918 3.591753
3.0583985 14.823119 3.5790565
2.5742912 14.914814 3.5790565
2.0874557 14.990704 3.5790565
0.51326394 4.8329239 1.149269
0.35224393 4.8002157 1.1381595
0.19526604 4.7957253 1.1349854
0.038681198 4.7525616 1.123876
-0.11570563 4.7378836 1.1207019
-0.26947844 4.724906 1.1191148
-0.41592884 4.6334162 1.1000701
-0.56652439 4.6174226 1.1000701
-0.70928353 4.5501161 1.0889606
-0.85951024 4.537807 1.0921348
-1.0052956 4.5008755 1.0905477
-1.1428876 4.4332738 1.0826124
-1.301672 4.4452519 1.0953089
-1.4477682 4.4069037 1.0968959
-1.5950464 4.3700538 1.1000701
-1.7564859 4.3656311 1.1127665
-1.9030678 4.318428 1.1159407
-2.0658622 4.302597 1.1286372
-2.2358191 4.2925987 1.1445078
-2.4369135 4.3286681 1.1746619
-2.6252537 4.3273873 1.1968807
-2.7720494 4.2508864 1.2000548
-2.9127924 4.1639047 1.2016419
-3.0628784 4.0883732 1.2079902
-3.2279043 4.0284109 1.2206866
-3.4533465 4.0333676 1.2556019
-4.1217046 4.5082717 1.4444619
-4.3834486 4.4918056 1.4841384
-4.4886022 4.3095603 1.471442
-4.591568 4.1297574 1.4603325
-4.7748919 4.021349 1.4762031
-4.4446373 3.5024035 1.3381289
-5.166923 3.805635 1.5174667
-5.0447116 3.468142 1.447636
-5.1436224 3.2948606 1.4444619
-5.7613387 3.4313409 1.5857102
-5.5468516 3.0635321 1.4984219
-5.6017871 2.8599982 1.4873126
-5.7647943 2.7104142 1.5063572
-7.0394931 3.0340242 1.8126596
-5.6478357 2.2191386 1.4349396
-5.8372149 2.0768735 1.4650937
-6.0295839 1.9266291 1.4968349
-5.8437672 1.6596713 1.4365267
-5.6341963 1.4036807 1.3730443
-4.5745258 0.98272723 1.1064184
-4.7295685 0.85601825 1.1365725
-4.8744373 0.71925384 1.1651396
-9.6028299 1.0989428 2.2856033
-2.7904172 0.22761041 0.66204172
-2.6957953 0.13174865 0.63823587
-2.7053659 0.044040974 0.6398229
-2.7468646 0.044716537 0.72941864
-2.7439535 0.13410223 0.72941864
-9.6141977 0.78421658 2.5611503
-9.6365566 1.1028024 2.5753088
-9.6351194 1.4217223 2.5859275
-8.0030098 1.4484879 2.1594083
-4.6279917 0.99421304 1.2568158
-4.5931778 1.1443255 1.2568158
-5.7268968 1.6264793 1.5806872
-5.9629908 1.9053507 1.6620975
-5.8475733 2.080559 1.6479392
-5.6588793 2.2234778 1.6143132
-5.6569624 2.4381533 1.6355506
-5.6650863 2.6635349 1.6620975
-5.504148 2.8101485 1.6408601
-5.4447708 3.0071528 1.6514788
-6.3061142 3.7557983 1.9488033
-5.0860291 3.2579677 1.6036944
-5.0816512 3.4935372 1.6373204
-4.5895581 3.3803837 1.5134352
-4.8802257 3.8456497 1.649709
-4.7218747 3.9766989 1.6390903
-4.5304618 4.0747972 1.6178528
-3.9674971 3.8092411 1.4603416
-4.3767767 4.4849687 1.6638672
-4.1520133 4.5414233 1.6337808
-3.5684769 4.1678357 1.456802
-3.4017484 4.245368 1.4444134
-3.9171903 5.2287202 1.7346588
-3.2023733 4.577867 1.4833488
-3.1208467 4.7857609 1.5169748
-2.8078403 4.6283574 1.4373343
-2.4496934 4.3513689 1.3258376
-2.2420976 4.3046527 1.288672
-2.0950246 4.3633337 1.2851324
-1.9492016 4.4231143 1.2833626
-1.9957767 4.9603724 1.4196364
-1.7327019 4.7471976 1.3417656
-1.7395364 5.2950258 1.4798092
-1.2983981 4.434072 1.2267294
-1.1500549 4.4610758 1.2231898
-0.99261522 4.4441032 1.2090315
-0.84743541 4.4740577 1.2090315
-0.70649081 4.5322008 1.2178804
-0.55859506 4.5527954 1.2178804
-0.41010734 4.5685649 1.2178804
-0.26346228 4.619422 1.2284992
-0.11296229 4.6255498 1.2284992
0.03803717 4.6734333 1.2408876
0.19230488 4.7229996 1.255046
0.35032514 4.7740669 1.270974
1.5874872 14.947876 3.9911401
2.0741129 14.894885 3.9929099
2.5567029 14.812912 3.9911401
3.0482781 14.774069 4.0052981
3.5213184 14.641096 3.9982193
4.0048585 14.550854 4.0070682
4.4822922 14.431884 4.0123777
4.9474864 14.272042 4.0106077
5.4165754 14.122111 4.0159173
5.8759627 13.944464 4.0176868
6.3350968 13.76398 4.0229964
6.7857175 13.562404 4.026536
7.2680225 13.416397 4.0513129
7.6907778 13.155453 4.0460033
8.1220064 12.909434 4.0495429
0.064925581 0.096106082 0.030794332
8.9682007 12.386017 4.0601621
9.4074364 12.140231 4.0778599
9.8103685 11.842989 4.083169
10.234824 11.56731 4.1008668
10.651684 11.276498 4.1185651
15.906424 15.777488 5.9485269
3.3942211 3.1542764 1.230269
16.894249 14.704732 5.9467573
3.5560877 2.8972769 1.2178804
3.5318668 2.6911168 1.1789451
3.7153409 2.6443014 1.2108012
3.8105502 2.52934 1.2143408
3.879519 2.3969607 1.2108012
4.0364256 2.3158536 1.2355783
3.8683202 2.0550277 1.1630169
3.807472 1.8664142 1.1258514
3.8175855 1.719593 1.111693
3.7359402 1.5385787 1.0727577
3.7216132 1.392797 1.0550598
0.10988943 0.037094757 0.030794332
4.3148718 1.3017148 1.196643
4.1424088 1.1039348 1.1382399
3.9358954 0.91279793 1.0727577
3.8262055 0.75703377 1.0355921
3.8027768 0.6245296 1.0232036
3.7219524 0.48743644 0.99665678
3.8021846 0.37252975 1.0143547
3.679266 0.23989879 0.9789589
3.6851249 0.12001298 0.9789589
3.6737475 0 0.97541928
3.652348 0 1.0773542
3.6504128 0.11888252 1.0773542
3.6578104 0.23849984 1.0812566
3.6876087 0.36130384 1.0929638
3.8050697 0.49832171 1.1319878
3.7737787 0.61976725 1.1280854
3.719161 0.73585451 1.1183294
3.7770073 0.8759492 1.143695
4.002162 1.0665596 1.2217429
5.8715186 1.7713256 1.8090537
4.2000484 1.4177867 1.3075956
3.7366002 1.3984057 1.1768653
3.6646371 1.5092139 1.1690606
3.6316643 1.6358467 1.1749141
3.8140755 1.8696512 1.2529621
3.7745645 2.0052204 1.2607669
3.9253209 2.2521083 1.3349124
18.931171 11.696624 6.5641241
3.6161575 2.4003074 1.2802789
3.7516797 2.6701648 1.3583268
17.753021 13.526969 6.5836363
3.528971 2.8751838 1.3427172
3.508357 3.0536695 1.3719852
16.223408 15.076542 6.5329051
3.3632894 3.3360269 1.3973508
10.606798 11.228979 4.5563412
10.187462 11.513783 4.5348778
9.7693176 11.793433 4.5173173
9.3640623 12.084257 4.5095124
8.9269686 12.329072 4.4900002
8.513526 12.602146 4.4860978
8.1093874 12.889378 4.4919515
7.6354704 13.060846 4.4626837
7.1999974 13.290826 4.4587812
6.7546916 13.500393 4.4529276
6.3116798 13.713102 4.4529276
5.8517046 13.886896 4.4451227
5.3918533 14.057656 4.4412203
4.9292583 14.21946 4.4392691
4.4579225 14.353419 4.4334154
3.9778302 14.452652 4.4217086
3.53159 14.683804 4.4548788
3.0424099 14.745627 4.4412203
2.5450823 14.745585 4.4139037
2.0628583 14.814062 4.4119525
1.5844632 14.919402 4.425611
0.34765372 4.7376623 1.4012532
0.18976203 4.6605473 1.3758876
0.037908625 4.6576395 1.3739364
-0.11258538 4.610116 1.360278
-0.25994664 4.5577803 1.3466196
-0.40757149 4.5403156 1.3446684
-0.55514103 4.5246434 1.3446684
-0.70415992 4.5172482 1.3485708
-0.84959048 4.485435 1.3466196
-0.98648798 4.4166703 1.3349124
-1.1429365 4.4334631 1.350522
-1.2884972 4.40026 1.3524733
-1.4578804 4.4376845 1.3778389
-1.7172211 4.7047839 1.4773499
-1.8719192 4.6525326 1.4793011
-2.078383 4.7162519 1.5202763
-2.1420374 4.4612479 1.4597892
-2.2433345 4.3070278 1.4324723
-2.4310133 4.3181877 1.4617404
-2.5599878 4.2198048 1.4558867
-3.0103321 4.6162887 1.625641
-11.147957 15.936264 5.7368159
-3.2329223 4.3153501 1.5905194
-3.2724018 4.0839438 1.5436907
-3.5971928 4.2013745 1.6314946
-4.0980353 4.4823828 1.7914928
-3.8536921 3.9489534 1.6275922
-4.4716563 4.2932906 1.8285656
-8.0517273 7.2419014 3.1944046
-4.6959872 3.9548967 1.8110049
-4.7858605 3.7712896 1.7973465
-5.097816 3.7547352 1.8675896
-4.6667891 3.2083273 1.6705185
-4.8077359 3.0797009 1.6841769
-6.132997 3.6526933 2.1056359
-6.1791573 3.412755 2.0822215
-5.473959 2.7947354 1.8129561
-5.6338596 2.6488531 1.8363705
-6.9137859 2.9798446 2.2207565
-5.5787883 2.1920085 1.7680784
-5.8964634 2.097954 1.8461264
-5.9994321 1.9169947 1.8578336
-9.6919956 2.7525954 2.9719679
-4.5774083 1.1403968 1.3914971
-6.1319008 1.3172919 1.8500289
-5.9176769 1.0710574 1.7739321
-4.7060595 0.69440854 1.4032043
-4.6013026 0.52657062 1.3661315
-4.8203835 0.3931919 1.4266187
-5.6895232 0.27805781 1.6802746
-4.5778103 0.074522719 1.350522
-4.5982409 0.074855313 1.494257
-4.5868168 0.22416645 1.4921259
-5.6034455 0.45706519 1.8267167
-5.9179397 0.67724586 1.9354054
-4.6858521 0.69142681 1.5390112
-9.6757364 1.7512395 3.194916
-6.0160799 1.2924105 1.9993399
-7.9056225 1.9695743 2.6472101
-9.5345755 2.7078869 3.22049
-5.8863769 1.8808702 2.0078645
-6.007422 2.1374328 2.071799
-5.3852448 2.1159618 1.8799955
-9.5539713 4.1177654 3.3803263
-5.7822418 2.7186174 2.0760615
-5.5446453 2.8308246 2.0227826
-6.1328063 3.3871555 2.2763896
-8.6284323 5.138926 3.263113
-4.8334818 3.0961928 1.8650774
-4.9841733 3.4265227 1.9652416
-5.139338 3.7853177 2.0739303
-4.9464316 3.8978207 2.0462253
-4.6915169 3.9511313 1.9929465
-4.5019026 4.0491104 1.9673727
-4.5191226 4.3388634 2.0355694
-3.8257852 3.9203568 1.7798313
-4.1564283 4.5462523 2.001471
-12.597613 14.713499 6.2936106
-3.3309436 4.1570039 1.7308148
-3.1860046 4.2527237 1.7265525
-3.1361239 4.4831619 1.7777002
-8.3554707 12.812961 4.9701653
-2.8411849 4.683321 1.7798313
-2.3751247 4.2189136 1.5731096
-2.2123029 4.2474494 1.5560604
-2.1268182 4.4295511 1.5965523
-2.0978916 4.7605209 1.690323
-1.9075515 4.7410946 1.6604868
-1.7072421 4.677444 1.6178638
-1.5131457 4.6059084 1.5752407
-1.3052832 4.4575849 1.5091751
-1.1480374 4.4532499 1.494257
-0.9910394 4.437048 1.4772078
-0.84486943 4.4605103 1.4750767
-0.69822365 4.4791665 1.4729455
-0.55285728 4.5060301 1.4750767
-0.40530837 4.5151048 1.4729455
-0.2581287 4.5259051 1.4729455
-0.11275718 4.6171508 1.5006504
0.037589043 4.6183743 1.5006504
0.1884291 4.627811 1.5049127
0.34232283 4.6650152 1.5198308
0.49883464 4.6970572 1.5347489
2.059037 14.786619 4.850821
2.5392447 14.711763 4.850821
3.0180869 14.62774 4.852952
3.5033512 14.566392 4.8678703
3.9547391 14.368754 4.8422961
4.424232 14.244944 4.8465586
4.8877029 14.099586 4.8486896
5.3487473 13.94527 4.852952
5.8023729 13.769825 4.855083
6.2529855 13.58558 4.8593454
6.7153563 13.421775 4.8763947
7.1392989 13.17878 4.8700013
7.5711007 12.95074 4.8742638
8.016573 12.741854 4.8913126
8.4637852 12.528516 4.9126244
8.8555584 12.230447 4.9062309
9.2610149 11.951275 4.9126244
9.691143 11.699061 4.9360671
10.071154 11.382332 4.9381981
15.061856 15.945365 7.1268911
15.624115 15.497467 7.1503334
16.096249 14.958372 7.139678
3.4936228 3.0408449 1.5049127
3.5144753 2.8633738 1.4729455
3.5953805 2.7395113 1.4686832
17.96649 12.787203 7.1652517
3.62939 2.4090908 1.4154044
18.771576 11.598018 7.1695142
4.08566 2.3441012 1.5304866
4.2293034 2.2467985 1.5560604
3.7171373 1.8221323 1.3450764
3.6847727 1.6597689 1.3131092
3.6458726 1.5014862 1.2811419
3.6375272 1.3613281 1.2619615
3.7047687 1.2505978 1.2704861
4.1391191 1.2486936 1.4047487
0.11027797 0.029388623 0.037082039
3.7579448 0.87152827 1.2534369
3.8615327 0.76402348 1.2790107
3.7096031 0.60922766 1.2214696
3.6754396 0.48134503 1.2044203
3.682632 0.36081624 1.2022892
3.7120605 0.24203709 1.2086827
3.6327498 0.11830729 1.1809777
3.7527378 0 1.2193384
3.6465497 0 1.2959841
3.612143 0.1176362 1.2844366
3.6128845 0.23557054 1.286746
3.5968351 0.35241005 1.2844366
3.6478918 0.47773725 1.3075317
3.636821 0.59727472 1.3098412
3.6983249 0.73173201 1.3398649
3.8561275 0.89429843 1.4068408
3.9442801 1.0511343 1.4507216
0.10825246 0.032657709 0.040185552
3.7136052 1.2535808 1.3929837
3.6099727 1.3510159 1.3698885
3.5821111 1.4752271 1.3768171
3.615145 1.6284058 1.4091504
3.7236054 1.825303 1.4738168
0.099855237 0.05304765 0.040185552
18.97341 10.885778 7.7741723
18.609028 11.497588 7.7741723
18.181612 12.068461 7.7556963
3.5691726 2.5402699 1.5569593
17.347517 13.217994 7.7510772
3.5827315 2.9189847 1.6424112
3.4662147 3.0169888 1.6331732
15.980709 14.850999 7.753387
15.493461 15.367872 7.7556963
14.958259 15.83569 7.7418394
14.46503 16.348253 7.7580056
9.6056623 11.59587 5.3514915
9.179347 11.845883 5.326087
8.8308258 12.196289 5.3514915
8.3927851 12.423419 5.3283963
7.9735789 12.673517 5.3214679
7.5043612 12.836578 5.2845159
7.1197028 13.142606 5.3122301
6.6997743 13.390632 5.3214679
6.2331944 13.542581 5.2983727
5.784039 13.726315 5.2937536
5.3458238 13.937648 5.3053012
4.8595281 14.018309 5.2729683
4.4102998 14.200086 5.2845159
3.9095426 14.204542 5.2360158
3.4633536 14.400087 5.26373
2.9849224 14.467002 5.2498732
2.5246034 14.626935 5.2752776
2.0364096 14.624125 5.2475634
0.5052017 4.75701 1.7001492
0.34296155 4.6737194 1.6655065
0.18721521 4.5979977 1.6354828
0.037029859 4.5496697 1.6170067
-0.11203167 4.5874429 1.6308637
-0.2564815 4.4970241 1.60084
-0.402141 4.4798203 1.5985305
-0.5485357 4.4708071 1.60084
-0.69977343 4.4891086 1.6146971
-0.83947462 4.4320283 1.6031495
-0.99320638 4.4467497 1.6193161
-1.1390423 4.4183578 1.6216257
-1.2950379 4.4225965 1.6377922
-1.4748132 4.4892273 1.6793635
-1.6513476 4.5243058 1.7116967
-5.3633761 13.33032 5.1066833
-2.1335216 4.8413715 1.8802913
-2.2899756 4.769361 1.8802913
-2.2368715 4.2946196 1.7209347
-2.3372195 4.1515827 1.6932206
-2.5216715 4.1566458 1.7278633
-7.7954521 11.954182 5.0720406
-8.2176743 11.747357 5.0951357
-3.2578418 4.3486133 1.9311006
-3.3326459 4.1591282 1.8941483
-4.8863187 5.7070212 2.6701453
-4.1267581 4.5137992 2.1735997
-13.389521 13.720504 6.8134146
-4.8148336 4.6227789 2.3722179
-7.9486651 7.1492047 3.7994978
-4.6282463 3.8978462 2.1505046
-5.6918187 4.4851909 2.5754552
-5.9028139 4.3476467 2.6054788
-4.8095593 3.3064792 2.0742905
-5.1554012 3.3024056 2.175909
-5.1149998 3.0463939 2.1158617
-7.3844256 4.0784264 2.9980962
-6.1589494 3.1444581 2.45767
-5.6699581 2.6658256 2.2267184
-5.9029169 2.5441597 2.2844563
-5.4685016 2.148675 2.0881476
-6.8396077 2.4335234 2.5800743
-5.8752685 1.8773208 2.1920757
-9.4526482 2.6846192 3.4923325
-9.4593554 2.3566651 3.4646182
-9.9630833 2.1403296 3.6216652
-9.7141428 1.7581908 3.5084991
-9.5733614 1.4126095 3.4392135
-9.7821302 1.1194618 3.4992609
-9.8651991 0.80469048 3.5177372
-9.8861647 0.48315564 3.5177372
-8.2527876 0.13434811 2.93343
-8.1695929 0.13299377 3.1577885
-9.7672281 0.47734302 3.7793269
-9.8875694 0.80651516 3.8340223
-9.7346468 1.1140279 3.7867854
-9.5277653 1.4058815 3.7221456
-9.4009962 1.7015134 3.6923115
-9.9947233 2.1471267 3.9508717
-9.7260361 2.4231048 3.8738008
-9.2892885 2.6382239 3.73209
-5.8282962 1.8623118 2.3647053
-5.8858037 2.0941613 2.4144285
-5.4612727 2.1458347 2.2677453
-9.1102629 3.926527 3.8340223
-5.6593728 2.6608486 2.4169147
-5.6041403 2.8611996 2.4318316
-6.1725068 3.4090822 2.7251978
-5.2845111 3.1473515 2.3771362
-5.1521816 3.3003435 2.3647053
-4.803483 3.3023016 2.2528284
-8.2776976 6.0968385 3.9732471
-8.2112827 6.4705443 4.0403733
-4.6553955 3.9207108 2.3522747
-7.7872272 7.004004 4.0478315
-13.726738 13.179205 7.3544164
-13.290486 13.619021 7.3544164
-12.805426 14.006423 7.334527
-12.367839 14.445132 7.3494444
-11.915237 14.870167 7.3643613
-4.3280921 5.7771978 2.7898376
-10.852407 15.513767 7.3171244
-8.1806917 12.544939 5.7881393
-7.6912827 12.678073 5.730958
-2.3673067 4.2050261 1.8649884
-2.2024355 4.2285047 1.842613
-2.1276727 4.4313307 1.8997946
-5.767148 13.086771 5.5270934
-5.5038023 13.679341 5.698638
-5.0534229 13.845197 5.6961517
-1.4780158 4.4989758 1.8301823
-1.3181384 4.5014853 1.8127792
-1.1404067 4.4236503 1.7655423
-0.99441212 4.452148 1.7630562
-0.84058934 4.4379134 1.745653
-0.70262718 4.5074153 1.7630562
-0.55475688 4.5215125 1.7605699
-1.2999156 14.480962 5.619081
-0.25682631 4.5030699 1.7431669
-0.11027409 4.5154743 1.745653
0.036761276 4.5166707 1.745653
0.18558964 4.5580735 1.7630562
0.33715031 4.5945268 1.7804592
0.49603274 4.6706743 1.8152653
2.0158808 14.476702 5.6489148
2.487118 14.409754 5.651401
2.9392333 14.245562 5.6215672
3.4013634 14.142343 5.6215672
3.8633029 14.03654 5.6265392
4.3200479 13.909496 5.6290255
4.7726145 13.767589 5.6315117
5.2527709 13.69504 5.6688042
5.6657801 13.445671 5.6389704
6.1596003 13.382686 5.6936655
6.5746675 13.140585 5.6787486
7.0479307 13.010118 5.7185273
7.4157248 12.684961 5.6787486
7.8315372 12.44775 5.6837211
8.264966 12.234216 5.7060962
8.6663513 11.969132 5.7110686
9.1419754 11.797655 5.76825
9.4842072 11.449251 5.7458749
9.8902159 11.177836 5.76825
14.789798 15.657349 8.3240166
15.369245 15.244662 8.3662815
15.800761 14.683773 8.3364477
16.27034 14.161683 8.3364477
16.757586 13.653028 8.3538504
17.15729 13.07305 8.3364477
17.610409 12.533771 8.3538504
18.009047 11.953918 8.3538504
18.366709 11.347871 8.3439054
18.832359 10.804853 8.3911428
19.13999 10.168034 8.3762255
3.8420253 1.8833522 1.6536653
3.6432195 1.6410517 1.5442746
3.5519488 1.4628053 1.4846069
3.5976803 1.3464156 1.4846069
3.6944537 1.247116 1.5069822
3.8377872 1.1577874 1.5492469
0.10815669 0.028823309 0.04325908
3.7984552 0.88092327 1.5069822
3.724148 0.7368412 1.4672037
3.7017238 0.6079337 1.4498007
3.6238747 0.47459194 1.4125084
3.624598 0.3551302 1.407536
3.6278174 0.23654421 1.4050499
3.6271651 0.11812542 1.4025638
3.6162224 0 1.3975915
3.5894234 0 1.5011683
3.5938804 0.11704144 1.5038292
3.5945156 0.23437282 1.5064901
3.6736331 0.35993457 1.5437433
3.5842669 0.46940479 1.511812
3.6235945 0.59510255 1.5357605
3.6834443 0.72878772 1.5703527
3.8313155 0.88854414 1.644859
0.10697456 0.028508279 0.046300326
0.10598995 0.031975154 0.046300326
3.6962729 1.24773 1.6315542
3.5583587 1.3316997 1.5889792
3.589608 1.4783145 1.6235714
3.5279851 1.5891454 1.6182495
3.9485724 1.9355813 1.8391074
0.097768232 0.051938936 0.046300326
18.670677 10.71209 9.0023527
18.236332 11.267317 8.9651003
17.828115 11.83382 8.9491339
17.459402 12.426295 8.9624386
16.974827 12.934022 8.9251862
16.57443 13.503805 8.9411516
16.140503 14.048673 8.9491339
15.632725 14.527615 8.9251862
15.269022 15.145253 8.9943705
10.184852 10.782282 6.2030458
9.7947674 11.069962 6.1817584
9.3846073 11.329014 6.1524882
8.9719076 11.578183 6.1258788
8.6276016 11.915615 6.1524882
8.2031269 12.142676 6.1285396
7.7967639 12.392481 6.1232181
7.3410954 12.557304 6.0833039
6.9193783 12.772817 6.0753212
6.5312777 13.053863 6.1045914
6.0949383 13.242197 6.0966086
5.6137376 13.322166 6.0460505
5.197638 13.551297 6.0699992
4.764214 13.743356 6.0833039
4.2766056 13.769623 6.0300851
3.8261435 13.901528 6.0300851
3.377578 14.043446 6.0407286
2.9418216 14.258106 6.0886259
2.4685919 14.302418 6.0699992
1.9789301 14.211346 6.0008149
1.5274025 14.382114 6.0487118
0.33998427 4.6331463 1.942884
0.18589082 4.5654707 1.9109528
0.036773752 4.5182037 1.8896652
-0.11046685 4.5233669 1.8923262
-0.25764218 4.5173745 1.8923262
-0.44265804 4.9311771 2.0706091
-1.7667211 14.399554 6.067338
-0.7096473 4.5524497 1.9269184
-0.84916317 4.4831791 1.9082918
-0.99463898 4.4531636 1.9082918
-1.140649 4.4245901 1.9109528
-1.3090955 4.4706039 1.9482058
-4.5319395 13.794904 6.07266
-5.0090985 13.723757 6.1099133
-5.4602718 13.571149 6.1178961
-5.8708906 13.322184 6.0886259
-6.3757677 13.278892 6.160471
-2.3282611 4.4700804 2.1078622
-7.2418518 12.863638 6.1737757
-7.6897221 12.6755 6.2003851
-8.1538363 12.503757 6.24296
-8.5419207 12.210874 6.2323165
-11.258072 15.027431 7.8528275
-11.765115 14.682815 7.8687935
-12.265766 14.325915 7.8874197
-12.618241 13.801683 7.8208966
-13.176332 13.502045 7.8900809
-13.581299 13.039566 7.874115
-8.2461338 7.4167542 4.6384144
-7.9867854 6.7263622 4.3669987
-8.2264814 6.4825211 4.3803034
-8.2640686 6.0868006 4.2924924
-8.45257 5.8109784 4.2898316
-5.3583918 3.4324358 2.6613374
-5.1338234 3.0576048 2.4990201
-8.7282934 4.8206458 4.1700892
-8.7615776 4.4732327 4.1142097
-6.48423 3.0486691 2.9966154
-5.6568427 2.4381015 2.5761874
-9.1086388 3.5789518 4.0929222
-9.2502775 3.2912366 4.1062269
-6.6130872 2.1130755 2.9034827
-6.9537845 1.9749241 3.0232248
-9.4406929 2.3520155 4.0689735
-9.6366596 2.0702055 4.1221924
-9.4985924 1.7191776 4.0370421
-8.0451612 1.1871139 3.4010782
-9.6914635 1.1090859 4.0796175
-9.8365746 0.80235559 4.1275144
-7.9954791 0.39075425 3.3478594
-6.4517088 0.10502814 2.6985905
-9.3051758 0.15148006 4.1943555
-6.4128032 0.31340587 2.8936701
-9.4197359 0.76835459 4.259531
-9.6645899 1.1060104 4.3842158
-9.4182043 1.3897151 4.2907023
-9.2937355 1.6821001 4.2566977
-9.4553595 2.0312574 4.3587122
-9.6099691 2.3941884 4.4635601
-9.1459055 2.597502 4.2850347
-6.5889769 2.1053715 3.1175354
-9.1056128 3.2397649 4.3558784
-9.0889654 3.5712221 4.4012179
-8.8812981 3.827843 4.3587122
-8.695097 4.0881453 4.3303747
-8.5686226 4.3747191 4.3360419
-8.5317631 4.7121019 4.3927169
-5.089467 3.0311871 2.669805
-8.3553362 5.3521943 4.4720616
-8.3891258 5.7673616 4.5882449
-8.1362047 5.9926238 4.5542397
-8.0109129 6.3126516 4.596746
-8.4408131 7.1087379 4.9736328
-7.6907272 6.9172096 4.661922
-13.43469 12.898806 8.3939533
-12.998938 13.320266 8.3882856
-12.613633 13.796643 8.4251242
-12.17832 14.223782 8.4392929
-10.733852 13.395803 7.736526
-10.265748 13.702864 7.7166901
-8.3798857 11.979241 6.5888629
-8.023304 12.303589 6.6200337
-7.5663967 12.472215 6.5746942
-6.8171306 12.109209 6.2629828
-6.4135594 12.313535 6.2573156
-6.0093598 12.515769 6.2573156
-5.5962567 12.698986 6.2544818
-5.3864708 13.387722 6.5038505
-4.9306054 13.508704 6.4811807
-4.484365 13.650089 6.4755135
-4.0359168 13.782786 6.4726796
-1.1695718 4.5367818 2.1115589
-1.0048347 4.4988117 2.077554
-0.84967685 4.4858913 2.0577178
-0.70999146 4.5546579 2.077554
-0.58127075 4.7376122 2.1512313
-1.2761623 14.216352 6.4330072
-0.27035552 4.7402844 2.1398962
-0.11223377 4.5957184 2.0718865
0.036749322 4.5152016 2.035048
0.18395372 4.5178952 2.0378816
1.0436739 14.222698 6.42734
1.4987601 14.112415 6.3961687
1.9625226 14.093518 6.4131713
2.4148743 13.991192 6.3990026
2.8931422 14.022172 6.4528437
3.3392038 13.883893 6.4358411
3.7926869 13.77997 6.4415083
4.2261558 13.607186 6.4216723
4.6709437 13.474298 6.42734
5.1093035 13.320991 6.4301734
5.5450721 13.159215 6.4358411
5.975719 12.983175 6.4415083
6.4204702 12.832395 6.4670119
6.8766856 12.694009 6.5066843
7.2957468 12.479733 6.5151858
7.664609 12.182428 6.4868484
11.115685 16.453991 8.9493656
8.5258245 11.77505 6.5520244
8.8660679 11.441599 6.5236869
9.3019762 11.229262 6.5718603
9.6458893 10.901702 6.5605254
10.038799 10.627663 6.5888629
10.424047 10.33955 6.6172004
0.080139704 0.074474461 0.049307019
15.973811 13.903584 9.5444498
0.084815554 0.069102384 0.049307019
0.087019868 0.066305056 0.049307019
0.089131966 0.063437462 0.049307019
0.091149598 0.060502633 0.049307019
0.093070634 0.057503689 0.049307019
0.094893046 0.054443806 0.049307019
0.09661489 0.051326226 0.049307019
0.098234341 0.048154254 0.049307019
3.537961 1.593639 1.7488406
3.5007524 1.441721 1.7063345
3.5693793 1.335824 1.7176695
3.6705408 1.2390437 1.7460068
0.10473961 0.031597953 0.049307019
0.10571262 0.028171975 0.049307019
0.10657359 0.024716143 0.049307019
0.10732162 0.021234116 0.049307019
3.6801178 0.60438532 1.680831
3.6043267 0.47203189 1.6383249
3.6115239 0.35384923 1.6354911
3.6148536 0.23569892 1.6326574
3.6080418 0.11750263 1.62699
3.5659423 0 1.6071538
3.5703745 0 1.7279924
3.6491404 0.11884108 1.7670499
3.5690036 0.23270938 1.7309968
3.5718942 0.34996641 1.7370057
3.6016965 0.47168741 1.7580366
3.7130737 0.60979766 1.8211294
0.10596038 0.020964788 0.052276917
0.10522184 0.024402648 0.052276917
0.10437179 0.027814647 0.052276917
0.10341112 0.031197172 0.052276917
0.10234087 0.034546632 0.052276917
3.6055009 1.3493425 1.8631914
3.4965298 1.4399819 1.8301427
3.5666668 1.6065692 1.8932356
0.096988358 0.047543474 0.052276917
0.095389448 0.050675217 0.052276917
0.093689442 0.053753253 0.052276917
0.091890149 0.056774326 0.052276917
0.089993477 0.059735231 0.052276917
0.08800143 0.062632836 0.052276917
0.085916132 0.065464057 0.052276917
0.083739772 0.068225905 0.052276917
15.752473 13.710932 10.107321
0.079123229 0.073529847 0.052276917
0.076687939 0.076066315 0.052276917
9.9455709 10.528966 7.0097637
9.560565 10.805269 6.9827237
9.1681519 11.067711 6.9556842
8.8144512 11.374988 6.9646974
8.3849192 11.580445 6.919631
8.0174379 11.867811 6.9316487
7.6136737 12.101469 6.919631
7.2314062 12.369675 6.9346533
6.7746792 12.50571 6.8835778
6.3418121 12.675183 6.8595428
5.9051151 12.829778 6.8355074
5.4795609 13.003748 6.8294983
5.0511675 13.169418 6.8264942
4.6177983 13.320989 6.8234897
4.1909642 13.493879 6.8385119
3.7248135 13.533366 6.7934456
3.289592 13.677614 6.8084674
2.8351216 13.740964 6.790441
2.3979704 13.893255 6.8234897
1.9393427 13.927056 6.8054633
1.4804058 13.93959 6.7844319
1.0281646 14.011346 6.7994542
0.574839 14.118021 6.8385119
0.037142094 4.5634599 2.2086997
-0.11111333 4.549839 2.2026908
-0.2655125 4.6553693 2.2567704
-1.270521 14.153509 6.8775692
-1.7169315 13.993747 6.8234897
-0.74018741 4.7483673 2.3258722
-0.86431569 4.5631771 2.2477572
-1.0137405 4.5386848 2.2507615
-1.1872802 4.605473 2.3018367
-3.9829814 13.602011 6.8595428
-4.4158611 13.441568 6.8475251
-4.8808374 13.372352 6.8895869
-5.3343701 13.258228 6.9166265
-5.750577 13.049169 6.9016047
-6.1454058 12.799114 6.8715606
-6.6361823 12.740954 6.9526796
-7.0534701 12.529016 6.9586887
-7.5283828 12.409554 7.024786
-7.8740664 12.074736 6.9767151
-8.3234129 11.898513 7.0277901
-10.135539 13.529059 8.181488
-10.570535 13.191983 8.181488
-11.90677 13.906622 8.860487
-12.378248 13.539182 8.8785133
-12.899096 13.217956 8.9386015
-13.349368 12.816887 8.9566278
-7.7547221 6.9747677 5.0478773
-7.8351936 6.5986934 4.9577446
-8.016572 6.3171115 4.9397178
-8.1129799 5.9755177 4.8766251
-8.2315645 5.6590419 4.8345633
-16.832476 10.782413 9.6746845
-5.0995817 3.0372112 2.8726766
-5.1305313 2.8335979 2.8366237
-8.6092186 4.3954453 4.6783333
-8.6634598 4.0732703 4.6332669
-8.7515469 3.7719204 4.612236
-8.9447947 3.5145745 4.6512938
-8.9842701 3.1965916 4.6152406
-8.9948597 2.8741217 4.5701742
-9.071702 2.5764277 4.5641656
-9.6205978 2.3968363 4.7985101
-9.3172226 2.0015819 4.612236
-9.1025543 1.6474977 4.4770374
-9.145215 1.3494338 4.4740329
-9.7887049 1.1202142 4.768466
-9.1579523 0.74700135 4.4469929
-9.1526136 0.44730562 4.4349751
-6.0774913 0.098936208 2.9417784
-7.5928621 0.12360511 3.9348252
-6.1414285 0.30014327 3.1860297
-6.4030428 0.52228725 3.3288085
-9.7043171 1.1105568 5.0611916
-8.9966736 1.3275156 4.7121763
-8.984849 1.6261938 4.7312136
-9.2624149 1.9898077 4.9088941
-9.4898252 2.3642561 5.0675368
-9.2252388 2.6200333 4.9691782
-8.9542522 2.8611465 4.8708196
-8.7525358 3.1141407 4.8137083
-8.754818 3.4399292 4.8739924
-8.7169371 3.7570033 4.9184127
-8.5124493 4.0022702 4.8739924
-8.4267492 4.3022857 4.9025483
-8.6574574 4.7815228 5.1246486
-5.0460463 3.0053265 3.0432508
-18.944578 12.135366 11.657572
-8.28619 5.6965957 5.2103157
-8.0076303 5.8979239 5.1532044
-7.8450794 6.1819739 5.1754146
-14.070324 11.849835 9.5317545
-13.563342 12.199169 9.4524326
-13.092821 12.570573 9.4048395
-12.625396 12.93749 9.366766
-12.16041 13.300913 9.3382101
-10.856829 12.680334 8.6496983
-11.395578 14.221634 9.442914
-10.853203 14.487007 9.3794565
-10.372396 14.827581 9.3762836
-7.7804136 11.93112 7.3805537
-7.2990084 12.03146 7.2917137
-6.9515848 12.348039 7.3424792
-6.5374913 12.551475 7.3329606
-6.0883756 12.680336 7.2885408
-5.6650019 12.854981 7.2790222
-5.2527175 13.055286 7.2917137
-4.7955966 13.138812 7.2472935
-4.397882 13.386842 7.3012323
-3.9443281 13.470009 7.2726765
-3.5022659 13.585328 7.2695036
-3.0301824 13.566629 7.2028732
-0.88333541 4.6635923 2.4594443
-2.1401093 13.72899 7.1997004
-1.6958305 13.821764 7.2155647
-1.2444913 13.86354 7.2123919
-0.79223031 13.890588 7.209219
-0.11378886 4.6593957 2.4150243
0.11353478 13.949439 7.2282562
0.56577969 13.895524 7.2060461
1.0155332 13.839211 7.1901817
1.4648094 13.792733 7.1870093
1.9239602 13.816588 7.2282562
2.3684995 13.722507 7.2155647
2.804008 13.590166 7.1901817
3.2491724 13.509556 7.1997004
3.6985562 13.437965 7.2219105
4.1249156 13.281219 7.2060461
4.569068 13.180416 7.2282562
4.9846997 12.996124 7.2123919
5.409833 12.838274 7.2187376
5.829968 12.666508 7.2250834
6.2610879 12.513843 7.2504663
6.6709242 12.314183 7.2568121
7.0743923 12.101095 7.2631578
7.513442 11.942158 7.310751
7.8844624 11.670974 7.2980595
8.2709436 11.423033 7.3075781
8.6683817 11.186486 7.3329606
9.0474358 10.921984 7.348825
9.4306087 10.658394 7.374208
9.8187914 10.394749 7.4091096
0.075645521 0.075032346 0.055207804
0.078047715 0.072530359 0.055207804
0.080367193 0.069951504 0.055207804
0.082601503 0.067298517 0.055207804
0.084748276 0.064574204 0.055207804
0.086805232 0.061781466 0.055207804
0.088770203 0.058923256 0.055207804
0.090641089 0.056002595 0.055207804
0.092415929 0.05302259 0.055207804
0.094092824 0.049986392 0.055207804
0.09567 0.046897218 0.055207804
3.501436 1.5771867 1.9898607
3.4942975 1.4390627 1.958132
3.6081054 1.3503171 1.9962063
0.10094976 0.034077041 0.055207804
0.10200546 0.030773109 0.055207804
0.10295306 0.027436566 0.055207804
0.10379156 0.024070945 0.055207804
0.10452006 0.020679815 0.055207804
0.1051378 0.017266769 0.055207804
3.6134539 0.47322717 1.888329
3.5781891 0.35058317 1.8629462
3.581594 0.2335303 1.8597733
3.5811775 0.11662775 1.8566004
3.6075695 0 1.8692918
3.6094737 0 1.9971849
3.6075611 0.11748698 1.9971849
3.5897822 0.23406419 1.990507
3.6102896 0.35372829 2.0072017
3.6028461 0.47183797 2.0105405
0.10361052 0.017015943 0.058097493
0.10300175 0.020379409 0.058097493
0.10228383 0.023721278 0.058097493
0.10145751 0.027038008 0.058097493
0.10052368 0.030326083 0.058097493
0.099483311 0.033582021 0.058097493
0.098337516 0.03680237 0.058097493
0.097087502 0.039983716 0.058097493
3.560612 1.6038419 2.1607928
0.09428025 0.046215966 0.058097493
0.092725985 0.049260262 0.058097493
0.091073446 0.052252356 0.058097493
0.089324392 0.055189073 0.058097493
0.087480679 0.058067307 0.058097493
0.085544258 0.060883999 0.058097493
0.083517179 0.063636169 0.058097493
0.081401594 0.066320904 0.058097493
0.079199739 0.06893535 0.058097493
0.076913953 0.071476743 0.058097493
0.074546658 0.073942393 0.058097493
0.072100364 0.076329671 0.058097493
0.069577657 0.078636065 0.058097493
8.9699011 10.828384 7.7802229
8.579422 11.071685 7.7501721
8.1826468 11.301085 7.7201219
7.8003306 11.546438 7.7101049
7.3914442 11.748249 7.6800547
6.9990354 11.972194 7.673377
6.5826421 12.151219 7.6466651
6.1782365 12.348249 7.6399875
5.7629399 12.52088 7.6266317
5.3523364 12.701826 7.6266317
4.9187727 12.824239 7.5999203
4.4967656 12.971847 7.5965815
4.0667849 13.094052 7.5865645
3.6464303 13.248576 7.6032591
3.2033844 13.319177 7.5798864
2.7669337 13.410478 7.5765476
2.3289616 13.493435 7.5765476
1.8876892 13.556115 7.5732088
1.4454427 13.610375 7.5732088
1.0012226 13.644194 7.56987
0.55657887 13.669554 7.56987
0.11134528 13.680427 7.56987
-0.33400634 13.676802 7.56987
-0.7793476 13.664708 7.5732088
-1.2242551 13.63811 7.5765476
-1.6675216 13.591034 7.5765476
-2.1099503 13.535518 7.5798864
-2.5516543 13.471525 7.5865645
-3.0032647 13.446114 7.6232929
-3.4242749 13.282801 7.5899034
-3.8666811 13.204842 7.613276
-4.3000951 13.089185 7.6232929
-4.7238646 12.942283 7.6232929
-6.2801032 15.608786 9.3094559
-5.5559411 12.607502 7.6232929
-6.0312757 12.561414 7.7101049
-6.4285865 12.342386 7.7000885
-6.8358006 12.142373 7.7101049
-7.2524476 11.95471 7.7368164
-7.6673913 11.757803 7.7668672
-8.7827969 12.555213 8.4780607
-10.749815 14.349004 9.9204807
-11.18476 13.958534 9.8971081
-11.6685 13.628332 9.9271593
-12.26064 13.410543 10.054038
-13.533563 13.868106 10.721826
-12.998391 12.479911 9.9705648
-13.370801 12.025992 9.950531
-13.727464 11.561083 9.9304981
-14.105978 11.115603 9.9371758
-8.0322113 5.9160285 5.519763
-18.275196 12.563845 12.271092
-18.725275 11.994886 12.304482
-16.67942 9.9339371 10.741859
-8.5845175 4.7412381 5.4262724
-8.7235451 4.4538155 5.4195948
-8.4870892 3.9903469 5.189208
-8.5681438 3.6928735 5.1624966
-8.7849007 3.4517491 5.2225976
-8.6083355 3.0628347 5.0556507
-8.7034683 2.7810137 5.0556507
-8.9228888 2.5341637 5.1324463
-9.4983568 2.3663816 5.416256
-9.7237434 2.0889132 5.503068
-8.949337 1.6197665 5.0322781
-8.9256811 1.3170402 4.9922109
-12.315174 1.4093419 6.8586764
-12.613142 1.0288363 7.0022507
-8.9633532 0.43805611 4.9654994
-8.9728622 0.1460703 4.9654994
-8.8517208 0.14409824 5.2192788
-8.8008032 0.430112 5.1947608
-8.817668 0.71924478 5.215776
-8.8309011 1.0106037 5.2402935
-8.7580633 1.2923071 5.2192788
-8.7932024 1.5915071 5.2683139
-18.471657 3.9681928 11.138535
-9.4434929 2.3527131 5.7376513
-9.0304432 2.5647099 5.5345054
-8.7214737 2.786767 5.3979073
-8.4918118 3.0213754 5.3138466
-8.5659084 3.3657031 5.4259272
-17.464762 7.5273194 11.212089
-8.952426 4.2091327 5.8322196
-8.7101431 4.4469728 5.7656717
-8.5971842 4.7482338 5.7901893
-16.451733 9.7983313 11.289144
-18.335226 11.745032 12.837257
-17.98238 12.362539 12.865277
-17.575239 12.944831 12.86878
-17.163242 13.524748 12.88279
-16.75482 14.110681 12.914312
-16.357319 14.712132 12.970353
-12.891368 12.377155 10.536102
-12.361336 12.666903 10.434529
-11.902396 13.018701 10.399504
-11.510974 13.444349 10.434529
-11.070981 13.816539 10.438032
-9.0124769 12.029981 8.8618984
-8.0542421 11.513727 8.2839823
-7.5778537 11.620499 8.1789074
-7.1709437 11.820362 8.1508865
-6.776567 12.037157 8.1438818
-6.3180499 12.130165 8.063324
-5.9301558 12.35081 8.0773344
-5.5058331 12.493798 8.0493135
-5.1339459 12.760087 8.1088572
-4.6588545 12.764171 8.0107861
-4.2613134 12.971137 8.0493135
-3.8351805 13.097266 8.0458117
-3.3845913 13.128867 7.9932737
-2.9476881 13.197289 7.9722586
-2.5132427 13.268731 7.961751
-2.0855091 13.378725 7.9827662
-1.6525491 13.469003 8.0002785
-1.2095445 13.474236 7.9757609
-0.7720139 13.536122 7.9932737
-0.33028403 13.524383 7.9757609
0.11039452 13.563612 7.9967761
0.55013448 13.511279 7.9722586
0.98962986 13.486213 7.9722586
1.4243121 13.411408 7.9512434
1.8641903 13.387362 7.9687557
2.300977 13.331299 7.9757609
2.7264833 13.214428 7.9547458
3.1565526 13.124456 7.9582486
3.5931115 13.054853 7.9827662
4.0179 12.936655 7.9862685
4.4388003 12.804632 7.9897709
4.8574891 12.66446 7.9967761
5.2717524 12.51059 8.0037813
5.6786575 12.337764 8.0072832
6.1011629 12.194205 8.038806
6.5005059 11.9996 8.0458117
6.8936405 11.791911 8.0528164
7.2991195 11.601505 8.0808363
7.6861792 11.377466 8.0948467
8.0803118 11.159751 8.1228666
8.4756651 10.937787 8.1578922
11.942475 14.41685 11.036963
12.436904 14.056083 11.064982
0.070983753 0.075147569 0.060943831
0.07339216 0.072797254 0.060943831
0.075722799 0.070369795 0.060943831
0.07797318 0.067867756 0.060943831
0.080140933 0.065293796 0.060943831
0.082223758 0.062650643 0.060943831
0.084219441 0.059941094 0.060943831
0.08612588 0.057168026 0.060943831
0.087941036 0.054334369 0.060943831
0.089662999 0.05144313 0.060943831
0.091289945 0.048497375 0.060943831
0.092820145 0.045500226 0.060943831
0.094251975 0.042454857 0.060943831
0.095583923 0.039364494 0.060943831
0.096814573 0.036232416 0.060943831
0.097942628 0.03306194 0.060943831
0.098966882 0.029856427 0.060943831
0.099886253 0.026619272 0.060943831
0.10069977 0.023353908 0.060943831
0.10140657 0.020063795 0.060943831
0.10200591 0.01675242 0.060943831
0.10249715 0.013423289 0.060943831
3.6844552 0.36099488 2.1825948
0.10315334 0.0067258966 0.060943831
3.5754423 0.11644097 2.1090417
3.5298104 0 2.0810215
3.5359242 0 2.2169595
3.5340507 0.11509297 2.2169595
0.10145371 0.0066150757 0.063744687
0.10118464 0.0099138496 0.063744687
0.10080833 0.013202118 0.063744687
0.10032519 0.016476395 0.063744687
0.099735729 0.019733209 0.063744687
0.099040575 0.022969114 0.063744687
0.098240457 0.026180675 0.063744687
0.097336233 0.029364491 0.063744687
0.096328847 0.032517187 0.063744687
0.095219389 0.035635423 0.063744687
0.094009012 0.038715895 0.063744687
0.092699014 0.041755337 0.063744687
0.091290772 0.04475053 0.063744687
0.089785784 0.047698297 0.063744687
0.088185653 0.050595514 0.063744687
0.086492054 0.053439114 0.063744687
0.084706806 0.056226082 0.063744687
0.082831785 0.058953464 0.063744687
0.080868982 0.061618365 0.063744687
0.078820474 0.06421797 0.063744687
0.076688439 0.066749521 0.063744687
0.074475132 0.069210328 0.063744687
0.072182901 0.071597792 0.063744687
12.68351 13.427507 11.580834
12.208754 13.798228 11.551526
11.745703 14.179308 11.544199
11.242158 14.507926 11.507565
8.0020027 11.051599 8.5547934
7.6118708 11.26747 8.525485
7.2068582 11.454862 8.4851866
6.8124943 11.653106 8.4632063
6.418448 11.848125 8.4485521
6.0241661 12.040314 8.4412251
5.6241803 12.219402 8.433898
5.234808 12.422915 8.4522152
6.5163074 16.989336 11.40865
4.8058372 13.863426 9.1995668
3.9672961 12.773723 8.3862724
3.5478637 12.890454 8.3826094
3.1168399 12.959338 8.3569651
2.6921864 13.048201 8.353301
2.2650521 13.123158 8.349638
1.8415333 13.224654 8.3716192
1.4063977 13.242725 8.349638
0.97417927 13.275659 8.3459749
0.54154551 13.300334 8.3459749
0.10871824 13.357656 8.3752823
-0.32484204 13.301545 8.3423109
-0.75829548 13.29559 8.349638
-1.19066 13.263864 8.349638
-1.6224743 13.223879 8.353301
-2.0538466 13.175608 8.3606281
-2.4827068 13.107515 8.3642921
-2.915678 13.053974 8.3862724
-3.3302829 12.918204 8.3642921
-3.7637792 12.853428 8.3972635
-4.1710405 12.696352 8.3789463
-4.584095 12.559348 8.3826094
-5.010097 12.452269 8.4155807
-5.4174714 12.293288 8.4229078
-5.8349752 12.152576 8.4522152
-6.2328434 11.966575 8.4595423
-6.6276474 11.772633 8.4705334
-7.0558209 11.630597 8.5291491
-7.4593787 11.438819 8.5621204
-7.8947406 11.285715 8.6353903
-9.7783537 13.052283 10.225344
-11.593732 14.468929 11.624796
-12.047146 14.070576 11.613806
-12.506639 13.679615 11.621133
-15.104083 15.477449 13.559117
-13.446067 12.909728 11.687076
-16.031326 14.418928 13.518819
-16.478754 13.878182 13.507829
-16.963057 13.367001 13.5408
-17.290361 12.735008 13.463867
-17.743868 12.198567 13.500502
-18.126604 11.611396 13.496839
-16.160582 9.6249266 11.793317
-8.501564 4.6954226 6.0892663
-8.5458126 4.3630733 6.0159965
-16.979801 7.9833369 11.764009
-17.262854 7.4402971 11.78599
-11.878102 4.6671252 8.0016069
-8.4619942 3.0107663 5.63133
-8.5610752 2.7355149 5.6349936
-9.1683102 2.6038649 5.975698
-11.83928 2.94959 7.6499119
-11.860462 2.547936 7.6059499
-11.862367 2.1470041 7.5583248
-11.914405 1.7580451 7.5509977
-12.011756 1.374619 7.5803056
-18.47369 1.5068729 11.621133
-8.7725172 0.42872956 5.5067716
-8.8168774 0.14353099 5.5287523
-11.905717 0.19381459 7.926826
-8.6763458 0.42402953 5.7828398
-11.759165 0.95917851 7.8542132
-11.716009 1.3407738 7.8503914
-11.671839 1.722253 7.8542132
-11.671735 2.1125009 7.8962522
-11.608014 2.4937036 7.9038959
-11.47613 2.8591161 7.873322
-11.382508 3.232713 7.8771439
-8.9909182 2.8728623 6.2834854
-8.3625956 2.9754004 5.9089565
-8.3361206 3.2754152 5.9624605
-16.923866 7.2941937 12.268303
-16.698257 7.8509645 12.283589
-8.5701103 4.3754787 6.4057803
-8.3276682 4.59938 6.3331676
-18.057861 10.75491 13.991899
-17.732063 11.358663 14.018652
-17.37187 11.942825 14.033938
-16.983175 12.508754 14.041582
-16.580547 13.06558 14.053047
-16.18161 13.627933 14.083621
-0.074269019 0.066799194 0.066497974
-15.281331 14.671787 14.10273
-12.778892 13.09478 12.180404
-12.237429 13.385155 12.073395
-11.862469 13.85488 12.142186
-11.351365 14.166457 12.08486
-9.6278944 12.851448 10.689932
-9.4117947 13.45438 10.9307
-7.3790197 11.315591 8.9930868
-6.9412842 11.441798 8.909009
-6.5792613 11.686684 8.9281178
-6.1529465 11.813179 8.8669701
-5.7403235 11.955443 8.8287525
-5.3435068 12.125447 8.8211088
-4.9459968 12.292952 8.8211088
-4.5373402 12.43125 8.8096437
-4.1159692 12.528719 8.7790699
-3.7027566 12.645035 8.7714272
-3.2892036 12.758858 8.7714272
-2.8921874 12.948803 8.8325739
-2.4542191 12.957114 8.7790699
-2.2212753 14.249678 9.6007404
-1.6017729 13.055154 8.7561398
-1.1749574 13.088937 8.7484961
-0.74829495 13.120246 8.7484961
-0.32069936 13.131911 8.7446747
0.1068625 13.129651 8.7408533
0.5369736 13.188048 8.7867136
0.96595496 13.163582 8.7867136
1.3872436 13.062369 8.7446747
1.8108919 13.004608 8.7408533
2.2351801 12.950088 8.7484961
2.6566761 12.876094 8.7523184
3.0837774 12.821869 8.7790699
3.4994903 12.714699 8.7790699
3.9114945 12.594054 8.7790699
4.3231139 12.470912 8.7867136
4.7288027 12.328948 8.790535
5.1298285 12.173785 8.7943573
5.5617666 12.083799 8.855505
5.9392991 11.870693 8.8363962
6.3280072 11.681176 8.8440399
6.7106667 11.478925 8.8516827
7.1052022 11.293285 8.8822565
7.481884 11.075058 8.8975439
7.8855438 10.890756 8.9510479
11.045431 14.254051 12.004604
11.514529 13.900237 12.016069
11.987504 13.548174 12.042821
12.430024 13.159153 12.050465
12.888446 12.783974 12.08486
0.073171891 0.067999221 0.066497974
0.07534647 0.065581471 0.066497974
0.077441193 0.063094221 0.066497974
0.079453856 0.060540106 0.066497974
0.081382312 0.057921838 0.066497974
0.08322452 0.055242181 0.066497974
0.084978536 0.052503984 0.066497974
0.086642489 0.049710143 0.066497974
0.088214628 0.046863627 0.066497974
0.089693278 0.043967441 0.066497974
0.091076873 0.041024663 0.066497974
0.092363946 0.038038407 0.066497974
0.093553141 0.035011839 0.066497974
0.094643191 0.031948172 0.066497974
0.095632941 0.028850641 0.066497974
0.096521348 0.025722539 0.066497974
0.097307459 0.022567177 0.066497974
0.097990453 0.019387899 0.066497974
0.098569602 0.016188074 0.066497974
0.099044286 0.012971094 0.066497974
0.099414006 0.0097403675 0.066497974
0.099678375 0.0064993184 0.066497974
0.099837109 0.0032513821 0.066497974
3.565902 0 2.373863
0.098036386 0 0.069201641
0.097984441 0.0031910466 0.069201641
0.097828649 0.0063787112 0.069201641
0.09756919 0.0095596164 0.069201641
0.097206332 0.012730391 0.069201641
0.096740454 0.015887674 0.069201641
0.096172057 0.01902812 0.069201641
0.095501736 0.022148401 0.069201641
0.094730213 0.025245208 0.069201641
0.093858294 0.028315263 0.069201641
0.09288691 0.03135531 0.069201641
0.091817088 0.03436213 0.069201641
0.090649962 0.037332531 0.069201641
0.089386769 0.040263373 0.069201641
0.088028848 0.043151543 0.069201641
0.086577632 0.04599398 0.069201641
0.085034676 0.04878768 0.069201641
0.083401598 0.051529672 0.069201641
0.081680134 0.054217059 0.069201641
0.079872109 0.056846987 0.069201641
0.077979438 0.05941667 0.069201641
0.076004125 0.061923388 0.069201641
0.073948272 0.064364478 0.069201641
13.08811 12.162885 12.611999
12.645276 12.542774 12.572227
12.195493 12.910864 12.536433
