# .PCD v0.7 - Point Cloud Data file format
VERSION 0.7
FIELDS x y z
SIZE 4 4 4
TYPE F F F
COUNT 1 1 1
WIDTH 216
HEIGHT 1
VIEWPOINT 0 0 0 1 0 0 0
POINTS 216
DATA ascii
4.8005323 8.2115459 2.2492597
4.2793517 8.5530081 2.2615595
0.25214645 0.598378 0.15354797
3.1649032 9.1298141 2.2849684
0.17230995 0.62605381 0.15354797
1.9830801 9.6113806 2.3206773
1.37712 9.8895502 2.3611474
0.92413992 12.593747 2.9860518
0.0052847643 0.64931208 0.15354797
-0.8449505 14.814958 3.5089879
-1.806887 14.726924 3.5085912
-2.7609494 14.576505 3.5081944
-3.7043533 14.369227 3.5089879
-4.6340523 14.105727 3.5109718
-5.5639381 13.828805 3.5248585
-6.4613571 13.45715 3.5300164
-0.32019162 0.5687536 0.1543415
-8.2952518 12.720616 3.5911183
-0.38831738 0.51833147 0.15315121
-8.8423386 10.327492 3.2149851
-0.45585239 0.46712086 0.1543415
-12.090821 10.874751 3.8454444
-3.8811176 3.058346 1.1684723
-0.53784817 0.36976025 0.1543415
-4.0320435 2.4014063 1.1097511
-4.1259494 2.1065078 1.0954676
-4.1726012 1.7983929 1.074439
-4.2459946 1.5107193 1.0657103
-4.2513623 1.207417 1.0450785
-4.2831841 0.92013943 1.0359529
-4.3090782 0.63583153 1.0300014
-4.2643914 0.34784043 1.0117502
-4.2742319 0.069580734 1.260962
-4.267241 0.34807286 1.2629132
-4.2600913 0.62860316 1.2702302
-4.2457342 0.91209418 1.2809618
-4.2123895 1.1963485 1.2916933
-4.1972923 1.4933912 1.3141322
-4.1291976 1.7796859 1.3263272
-4.087132 2.0866897 1.3536439
-4.016583 2.3921986 1.3790095
-3.9028451 2.6831307 1.3970581
-3.797931 2.9927945 1.426326
-3.6013057 3.2390938 1.4287651
-10.570338 10.831632 4.4643421
-12.301827 14.368032 5.579452
-8.9711952 11.974877 4.4136109
-8.0619383 12.362833 4.3536115
-0.31314528 0.55623722 0.18829066
-0.27700609 0.57692409 0.18877845
-5.4967489 13.66181 4.3438554
-0.199745 0.60800964 0.18877845
-3.6695666 14.234289 4.336051
-2.6617794 14.052934 4.2189789
-1.7901214 14.590277 4.336051
-0.83513254 14.642815 4.3262949
0.1197582 14.71408 4.3404408
1.0780823 14.691602 4.3453188
1.3600186 9.7667398 2.9087491
1.9481635 9.4421511 2.8438718
2.5360062 9.2140722 2.818994
3.0613551 8.831109 2.7570434
3.6763394 8.7244558 2.7926528
4.2243648 8.4431067 2.784848
4.7305431 8.0918264 2.7648482
4.4323735 6.5610199 2.3355846
4.5632153 5.8887973 2.1975372
4.9443698 5.5880842 2.2009518
5.4125409 5.3686671 2.2487562
4.6888695 4.0811858 1.8336388
4.7682157 3.6331565 1.7682736
4.8649898 3.2292485 1.7224205
4.8037343 2.756088 1.6336409
5.3292522 2.6123874 1.7507129
5.0536699 2.0812619 1.6121777
5.2708211 1.7792414 1.640958
5.3402643 1.4231583 1.6302263
5.1911869 1.0271021 1.5609587
5.4404988 0.7125017 1.6185191
0.64192379 0.041855291 0.18975405
6.0694599 0 2.1570866
6.3013921 0.410869 2.2442708
5.9584699 0.78033656 2.1357236
7.2879601 1.4419591 2.6403525
0.60751271 0.16189961 0.22344553
5.0118122 1.6918093 1.8799448
5.0879016 2.0953593 1.9555814
4.9291167 2.4162419 1.9509624
6.2762775 3.6009431 2.5716445
5.4926805 3.6458926 2.3430026
4.7140136 3.591857 2.1062772
5.8660712 5.1058211 2.7639115
5.5306602 5.4858289 2.7685306
5.1716957 5.845006 2.7737269
4.8162565 6.2153454 2.7945125
0.35195023 0.52097428 0.22344553
3.9757717 6.8007526 2.7997091
4.1485596 8.2915974 3.2951
3.6065867 8.5589237 3.3008738
3.0638769 8.8383837 3.3245463
2.4892154 9.0440674 3.3337843
1.9125617 9.269599 3.3638079
1.327119 9.5304766 3.4198136
1.0621988 14.475147 5.1583009
0.11799416 14.497341 5.1525269
-0.8221913 14.415909 5.1317415
-1.7592077 14.338317 5.1340508
-2.6856778 14.179107 5.1288543
-3.6045744 13.982184 5.1317415
-4.5208812 13.761242 5.1479077
-5.4133434 13.454512 5.1542592
-6.299789 13.120649 5.1727352
-7.1520863 12.704187 5.181396
-7.9067321 12.124827 5.1444435
-8.7967377 11.742009 5.2143064
-9.566391 11.173155 5.2275863
-14.843458 15.210382 7.5532675
-3.691323 3.3200574 1.7644691
-3.784678 2.9823511 1.7125051
-3.8930573 2.6764019 1.6790171
-3.9765961 2.3683829 1.6449517
-4.0470285 2.0662146 1.614928
-4.1281333 1.7792271 1.5976067
-4.1494374 1.4763645 1.5652735
-4.2070117 1.1948211 1.5543033
-4.2043619 0.90320641 1.5283213
-4.220469 0.62275666 1.5161964
-4.2261381 0.34472016 1.5069582
-4.1700883 0.067885369 1.7442449
-4.174274 0.34048969 1.7515626
-4.1653056 0.61461693 1.7608758
-4.1864715 0.89936304 1.7908114
-4.1420355 1.1763674 1.80079
-3.9668024 1.4113832 1.7608758
-4.0520792 1.7464477 1.8453606
-3.9723611 2.0280931 1.8653177
-3.91535 2.3319058 1.905897
-3.8221774 2.6276731 1.939824
-3.7218187 2.9328175 1.9817337
-3.6236343 3.2591767 2.0382786
-9.9073 10.152205 5.9325619
-12.508757 16.696863 8.7252159
-7.0814176 12.57866 6.0370035
-6.2011685 12.915251 5.9917674
-5.3316703 13.251518 5.9738064
-4.4383082 13.509896 5.947197
-3.5486946 13.765426 5.9452009
-2.6446433 13.962463 5.9432054
-1.7298006 14.098636 5.9405446
-0.80962646 14.195602 5.9465318
0.11577401 14.224564 5.9491925
0.68855953 9.3833666 3.9348624
1.2963104 9.3092308 3.930871
1.8748384 9.0867662 3.8803132
2.4300144 8.8289719 3.8297553
3.0034878 8.6641788 3.835077
3.4861181 8.273035 3.7545838
4.0853405 8.1652431 3.8184464
4.5798559 7.8340683 3.7951632
4.3799992 6.4834929 3.2722888
4.7263126 6.0992732 3.2270527
5.0130115 5.6656628 3.1638556
5.1609716 5.1191373 3.0401218
5.4375181 4.7328091 3.014843
5.660553 4.313076 2.9762592
4.9007902 3.2530119 2.4600372
4.6288314 2.6557395 2.2318618
5.7487535 2.8180261 2.6775692
4.8668413 2.0043197 2.201261
0.58625549 0.19789895 0.25877625
6.0926318 1.6236612 2.6369898
6.3023939 1.2469599 2.6868823
6.3496695 0.83156902 2.6782343
5.7030358 0.37185442 2.3901877
6.4700041 0 3.1313572
6.3757653 0.41571835 3.0922997
6.8522406 0.89738703 3.344671
5.4380813 1.0759515 2.6829474
5.4135365 1.442685 2.7114894
5.9331241 2.0028112 3.0307093
6.2078257 2.5565796 3.2492807
4.6459656 2.2774417 2.5041845
4.5565915 2.6142926 2.542491
6.1624842 4.0904903 3.579767
5.854888 4.4611497 3.5624917
5.552218 4.8326435 3.5624917
5.2337313 5.1913075 3.5677493
4.8941259 5.5312991 3.5745094
4.6360326 5.9827676 3.6631396
4.1978478 6.2138634 3.6293399
4.3924489 7.5134997 4.2121973
3.9512198 7.8971806 4.273788
3.4061191 8.0831861 4.2452459
2.8795793 8.3067389 4.2550106
2.3914814 8.6889696 4.3616676
1.827654 8.858078 4.3774405
1.2763283 9.1657324 4.4788399
0.099000119 12.163639 5.8871617
-0.78992754 13.850211 6.7141285
-1.689036 13.766386 6.7126265
-2.6039798 13.74778 6.7719636
-3.4619644 13.428998 6.7118754
-4.3312893 13.184137 6.716382
-5.2297521 12.998206 6.7809772
-6.1040273 12.712934 6.8252921
-9.4121571 14.433369 8.3395205
-10.571306 10.832623 7.3255281
-3.5966237 3.2348826 2.3411946
-3.6909924 2.9085262 2.2743464
-3.7969606 2.610337 2.230031
-3.8494201 2.2926395 2.1684406
-3.9475849 2.0154436 2.1451561
-3.9976695 1.7229972 2.1068499
-4.0691381 1.447794 2.0903256
-3.9651186 1.1261219 1.9949352
-4.11344 0.88367397 2.0362461
