# .PCD v0.7 - Point Cloud Data file format
VERSION 0.7
FIELDS x y z
SIZE 4 4 4
TYPE F F F
COUNT 1 1 1
WIDTH 639
HEIGHT 1
VIEWPOINT 0 0 0 1 0 0 0
POINTS 639
DATA ascii
2.7876751 0.18176448 0.038160358
3.0492418 0.39933652 0.042008158
3.3949463 0.67170703 0.047273785
3.276185 0.87308973 0.046314426
5.1687155 1.7447742 0.074518561
2.5831149 1.0638087 0.038160358
2.4656715 1.2086667 0.037509955
2.2049918 1.265089 0.034725402
2.1180069 1.4058756 0.034725402
2.2349541 1.7029302 0.038381759
1.611806 1.4029139 0.029189127
1.3586271 1.3476142 0.026139915
1.3653481 1.5431048 0.028145287
1.4629105 1.8878758 0.032624643
1.169119 1.7305882 0.028528612
0.94580621 1.6178479 0.025599128
0.64225978 1.2836647 0.019607106
0.61849558 1.4677746 0.021757081
0.33229196 0.95856452 0.013858378
0.31581855 1.1474637 0.016257141
0.20706773 1.0035937 0.013997797
0.16229357 1.1654832 0.016074054
0.093159623 1.2695358 0.01738842
0.009443868 1.1603199 0.015850434
-0.060158767 1.054795 0.01443186
-0.19051054 1.5527446 0.021369461
-0.21180795 1.1182457 0.015546773
-0.31120911 1.2071836 0.017029213
-0.42528403 1.2945344 0.018613081
-0.4853479 1.2063005 0.017761733
-0.57154429 1.1903625 0.018037472
-1.1483366 2.0397804 0.03197531
-1.9034851 2.9189591 0.047601689
-2.5818086 3.4462345 0.058820736
-1.4498361 1.6933496 0.030451139
-2.6139481 2.6785636 0.051124401
-1.453382 1.3072039 0.02670197
-2.181612 1.7191247 0.037941277
-1.6978912 1.1672674 0.028145287
-2.0416257 1.2159524 0.03246006
-1.7636712 0.90044415 0.027049923
-2.2386026 0.96483868 0.033298504
-1.7510746 0.62303007 0.025388507
-2.1756229 0.61789232 0.03089422
-1.8246603 0.39198452 0.025493419
-2.1638522 0.31928998 0.029878158
-2.1102467 0.17212985 0.028921597
-2.2346358 0.036377903 0.15287353
-2.339493 0.19082917 0.1605572
-3.8938515 0.57456219 0.26923069
-3.9698939 0.85283655 0.27774352
-4.0990953 1.1641721 0.29147449
-4.1157637 1.4643832 0.29881465
-2.3544145 1.0147536 0.17536768
-3.8907604 1.9864318 0.29881465
-2.3144047 1.3784143 0.18426016
-2.2074244 1.5175617 0.1832317
-2.3802664 1.8756657 0.20729029
-3.4492438 3.1023259 0.31732652
-2.1701314 2.2237761 0.21253784
-2.5796945 3.0129781 0.27131376
-1.6809134 2.2437069 0.19176561
-1.79899 2.758718 0.22527894
-1.1572932 2.0556898 0.16136447
-0.80267227 1.6717356 0.12684782
-0.41475922 1.030857 0.076005876
-0.53863305 1.6395608 0.11804596
-0.33939299 1.3165092 0.092995964
-0.28945091 1.5281637 0.1063878
-0.15374686 1.2531046 0.086357445
-0.087626219 1.5363963 0.10526317
0.010063953 1.2365066 0.084582172
0.11262248 1.5347664 0.10526317
0.14961831 1.0744581 0.07420408
0.30241102 1.4656934 0.10236792
0.29969871 1.0888954 0.077252112
0.49357632 1.4238224 0.10307796
0.49768755 1.1810806 0.087667733
0.76038718 1.5197623 0.11624025
0.62224406 1.0643791 0.084334001
1.6964383 2.5111525 0.20729029
1.6500022 2.1293163 0.18426016
1.0884742 1.2301841 0.11235679
1.1201775 1.1110975 0.10792192
1.571807 1.3680989 0.14253663
1.1544858 0.879664 0.099280462
1.7128236 1.1369259 0.14062144
1.2463648 0.71508771 0.098288894
2.3656187 1.159621 0.1802084
2.0765185 0.85517627 0.15361141
4.5970759 1.551809 0.33188105
3.1000266 0.82614422 0.2194483
2.3495834 0.46487674 0.16383144
1.5204992 0.19912848 0.10489311
2.2409608 0.14611714 0.15361141
1.3354268 0 0.16499855
2.8658371 0.18686089 0.35484016
1.9573236 0.25633612 0.24390201
1.710605 0.33845171 0.21545082
2.1379933 0.56976634 0.273379
5.9582367 2.0112884 0.77698123
2.8048415 1.1551229 0.37479004
3.0843217 1.5119276 0.42440647
1.8144481 1.0410191 0.25846148
1.3267438 0.8806566 0.19675146
1.6266723 1.239448 0.25267792
1.8731891 1.6304214 0.30683219
1.8606982 1.8456155 0.3238104
1.4592081 1.6491846 0.27207616
2.554455 3.2965064 0.5152728
1.5521765 2.2976091 0.3425895
0.93875617 1.6057885 0.22981943
0.49727085 0.99387985 0.13731146
0.61836219 1.4674581 0.19675146
0.430608 1.2421774 0.16243726
0.39779937 1.4453245 0.18521732
0.30187017 1.4630721 0.18457738
0.20603614 1.4796129 0.18457738
0.107104 1.4595631 0.18082108
0.011368025 1.3967314 0.17257874
-0.088413946 1.5502079 0.19184706
-0.19113487 1.5578332 0.19392127
-0.28793779 1.520175 0.19116466
-0.39322239 1.525314 0.1946218
-0.50810164 1.5466254 0.20114107
-0.6586417 1.6370108 0.21801801
-0.785523 1.6360185 0.224231
-1.4788979 2.6269534 0.37247294
-2.2416542 3.4375353 0.507052
-2.2109962 2.9512684 0.4556227
-2.6905286 3.1424279 0.51113218
-1.6146334 1.6545464 0.28563812
-2.7022116 2.4304287 0.44904914
-2.6432149 2.0828707 0.41579366
-1.6126492 1.1086652 0.24179465
-2.6725001 1.5916889 0.38432789
-1.9519318 0.99656081 0.27078465
-2.7014644 1.1643323 0.36346108
-2.0550492 0.73118383 0.26950431
-2.6368196 0.74887544 0.33867642
-2.1225522 0.45597947 0.268235
-1.8632797 0.27493861 0.23271011
-2.0849509 0.17006651 0.25846148
-2.6722598 0.043502036 0.47962299
-1.8386269 0.14997421 0.33105287
-2.4237511 0.35763967 0.43967214
-1.9309062 0.4148089 0.35442308
-2.4463096 0.69476926 0.4563728
-2.6210446 0.9325642 0.49925411
-2.4405932 1.0518967 0.47693348
-2.4491842 1.2504336 0.49349713
-2.5065742 1.4928666 0.52356243
-2.2530644 1.5489383 0.49066398
-1.8280375 1.4405056 0.41767097
-2.4319515 2.1873507 0.58699334
-1.140311 1.168499 0.29300115
-2.5255244 2.9497097 0.69686866
-1.8150338 2.4227326 0.54325765
-2.3740568 3.6405723 0.77997154
-1.5834935 2.8127456 0.57926404
-0.89797843 1.8702309 0.37231147
-0.53993213 1.341966 0.2595889
-0.53347081 1.6238474 0.3067359
-0.33806211 1.3113467 0.24302642
-0.29284352 1.546075 0.28238934
-0.13832799 1.1274339 0.20384465
-0.088315412 1.5484803 0.27833939
0.01038541 1.2760024 0.22899693
0.085981734 1.1717188 0.21084015
0.15409353 1.1065962 0.20050409
0.30042094 1.456048 0.26680392
0.2948707 1.0713538 0.19941275
0.49378851 1.4244345 0.27055046
0.47512257 1.1275308 0.21957578
0.79886419 1.5966651 0.32039851
0.77719146 1.3294241 0.27635399
1.015802 1.5036408 0.32564601
2.0169387 2.6028452 0.59092909
3.825999 4.324111 1.0361482
1.7124652 1.6985841 0.43285292
2.9067109 2.5299976 0.6915521
2.0118933 1.5329683 0.45391646
1.8109231 1.2020416 0.3900629
2.1939206 1.258737 0.45391646
3.2132976 1.5751512 0.64220995
5.0670776 2.0867834 0.98342443
5.1921167 1.7526735 0.98342443
3.640065 0.9700622 0.67603892
1.8324143 0.36255229 0.33521685
2.7109883 0.35503799 0.49066398
1.8033831 0.1175858 0.32431945
2.6424339 0 0.62485665
2.6220486 0.17096515 0.62135273
1.8389051 0.24082774 0.43855929
3.0501099 0.60347939 0.73524171
2.2013664 0.58665502 0.53872532
6.8412004 2.3093455 1.7074238
3.1800587 1.3096491 0.81326312
2.2699482 1.1127236 0.59779811
1.7550929 1.0069646 0.47848418
2.3051102 1.5300698 0.65424263
2.3368065 1.7805369 0.69471425
2.8094194 2.4453151 0.88074887
3.4546263 3.4266233 1.1506207
2.8475389 3.2182641 1.0161531
2.5047998 3.2324266 0.96700382
1.4875954 2.202013 0.62839687
0.68674654 1.1747136 0.32177082
0.63993591 1.2790201 0.33819446
0.64122683 1.521719 0.39048371
0.4764927 1.3745412 0.34401393
0.38472638 1.3978266 0.34283546
0.30014673 1.4547189 0.35124332
0.19927293 1.4310442 0.34166431
0.11063588 1.507694 0.35748318
0.012347531 1.5170782 0.35875553
-0.087949194 1.5420592 0.36524349
-0.18410003 1.5004961 0.35748318
-0.28953663 1.5286163 0.36789909
-0.38144228 1.4796188 0.36132523
-0.5173648 1.5748218 0.39197943
-0.64075041 1.5925434 0.40592733
-0.58327687 1.2147981 0.31866014
-1.7609959 3.1280415 0.84885031
-2.4289632 3.7247701 1.0515285
-2.6432133 3.5281982 1.0424755
-2.4406424 2.8505707 0.88739294
-1.9551995 2.0035312 0.66198719
-1.3905957 1.2507324 0.44227421
-2.4421284 1.9244132 0.73524171
-1.8226985 1.25307 0.52304357
-1.5477632 0.92181754 0.42599541
-1.3137249 0.67072362 0.34880289
-2.2842731 0.98452264 0.58819717
-1.9150209 0.68136197 0.48065475
-1.594566 0.45286804 0.39197943
-1.3347111 0.28673068 0.3228201
-2.1988773 0.32445812 0.52559888
-1.7955135 0.14645752 0.42599541
-2.012198 0.032756813 0.59362835
-1.6730833 0.13647106 0.49515814
-2.1566648 0.31822941 0.6430521
-2.1736059 0.46694711 0.65578908
-2.1176636 0.60143149 0.64936352
-2.273123 0.80877423 0.71169317
-2.1696875 0.9351362 0.69691879
-2.2936647 1.1710329 0.75965375
-1.6607665 0.98912007 0.5701893
-2.1221817 1.4589589 0.75965375
-1.1661481 0.91893238 0.43795094
-2.22101 1.9976254 0.88115305
-2.1682165 2.2218139 0.91573805
-2.0059743 2.3428962 0.90980279
-2.0466809 2.7319386 1.0069175
-2.1323023 3.2698462 1.1514869
-2.2073758 3.9209423 1.3272697
-0.92555314 1.9276612 0.63076043
-0.65467459 1.6271509 0.51736253
-0.53436893 1.6265811 0.50503057
-0.40628579 1.5759871 0.48007736
-0.27630591 1.4587642 0.43795094
-0.18741545 1.5275184 0.45395967
-0.063027099 1.105087 0.32650366
0.012389741 1.5222642 0.44904599
0.11060981 1.5073388 0.44582391
0.20404695 1.465328 0.43640679
0.3010782 1.4592336 0.4395051
0.39121741 1.4214103 0.43487257
0.50406599 1.454082 0.45395967
0.60868049 1.444482 0.46237114
0.71189827 1.4228491 0.46930808
0.91102237 1.5583484 0.53246289
1.6109771 2.3846486 0.84888452
3.1111786 4.0149546 1.4982705
6.530499 7.3807139 2.9070063
12.127957 12.029649 5.0388203
4.4820061 3.9011323 1.7527423
8.7197523 6.644042 3.233685
4.0716319 2.7026391 1.4415368
2.3932071 1.3730754 0.81387532
6.9252748 3.3947542 2.2750223
4.3528643 1.7926477 1.3886127
10.197196 3.44221 3.1746795
3.4186471 0.91105527 1.0436128
1.9130751 0.37851143 0.57525021
2.7850924 0.36474285 0.82854998
2.999809 0.19559623 0.88674998
5.0895548 0 1.8088282
1.9728549 0.12863584 0.70264161
3.0842152 0.40391672 1.1054903
2.0706689 0.40969214 0.75018197
3.4331758 0.91492712 1.2627355
2.6144941 0.88256001 0.98070407
8.2466679 3.3962395 3.169682
9.3231316 4.570178 3.6901298
1.8134279 1.0404336 0.74303466
2.7939894 1.8545744 1.1918268
4.3500042 3.3144991 1.9436337
10.884416 9.4737816 5.1284003
35.980816 35.689156 18.011229
2.2701483 2.5657022 1.2175449
3.3146896 4.2775836 1.9232658
1.5084299 2.2328529 0.95766926
0.91396111 1.5633754 0.64360464
0.47084811 0.9410696 0.37398323
0.60467285 1.4349713 0.55341762
0.42598614 1.2288446 0.4622283
0.39829588 1.4471285 0.53343415
0.24609192 1.192732 0.43282577
0.19905068 1.4294482 0.51292783
0.091920115 1.2526443 0.4463869
0.012127862 1.4900886 0.52959514
-0.077019699 1.3504266 0.48072165
-0.18146838 1.4790472 0.52959514
-0.23085774 1.2188195 0.44087037
-0.37880072 1.4693722 0.539289
-0.41662484 1.2681766 0.47440892
-0.65375745 1.6248715 0.62246841
-0.64267051 1.3384979 0.52769458
-1.7824998 3.1662388 1.2913487
-1.4547496 2.2308316 0.94651961
-2.1146257 2.8226321 1.253454
-1.9579636 2.2868216 1.0699358
-2.172477 2.2261796 1.1054903
-1.9460775 1.750345 0.93023384
-1.3928542 1.0975783 0.63024384
-1.9429212 1.3357208 0.83795267
-1.1777591 0.70145029 0.48718974
-2.1110334 1.0777904 0.84238774
-1.7439023 0.75162262 0.67489827
-2.2213578 0.79035616 0.83795267
-1.7873236 0.50761259 0.66033643
-2.2004492 0.4727138 0.79988199
-1.6378422 0.24167387 0.58839196
-2.0837786 0.16997088 0.74303466
-1.6400715 0.026698921 0.68600142
-1.9559937 0.15954766 0.82075232
-2.0154629 0.29739422 0.85203356
-1.8754588 0.40289736 0.80224913
-2.163564 0.6144675 0.94063032
-2.0146952 0.71682596 0.89432943
-2.1889632 0.94344407 0.99687755
-1.6414911 0.83806497 0.7708016
-1.8742499 1.1162666 0.91233921
-1.6097745 1.1066889 0.81698954
-1.9787256 1.5592487 1.0535997
-1.104629 0.99352765 0.62134904
-2.1130593 2.1652932 1.2653149
-1.2039371 1.4061494 0.77418375
-1.3555026 1.8093439 0.94550192
-2.1348574 3.2737646 1.6345471
-1.2867059 2.2855644 1.096934
-1.0152199 2.1144111 0.98093796
-0.49433339 1.2286333 0.5538699
-0.47585231 1.4484608 0.63762754
-0.28798935 1.1171138 0.48247448
-0.24243084 1.27992 0.54480553
-0.11749735 0.95765513 0.4035137
-0.073214851 1.2837142 0.53774732
0.0090657901 1.1138674 0.46585694
0.098889612 1.3476213 0.56511748
0.15231249 1.0938059 0.46186522
0.25404438 1.2312751 0.52579021
0.25668892 0.93262792 0.4045473
0.42667115 1.2308207 0.54480553
0.40116194 0.95201218 0.43205538
0.60461688 1.2084291 0.56511748
0.4342638 0.74282956 0.3598589
1.2273431 1.8167745 0.91694564
1.1142836 1.4379752 0.7608155
2.9196808 3.2997983 1.8426944
3.7617841 3.7312913 2.2159166
2.3757341 2.0678358 1.3172305
2.8950834 2.2059176 1.5222044
1.7994238 1.1944088 0.90325224
2.1015558 1.2057439 1.0132973
3.1469014 1.542604 1.465717
2.3560975 0.97031575 1.0656575
4.5398006 1.532475 2.0038919
2.5644116 0.68340504 1.1099188
3.0897169 0.61131585 1.3172305
2.7446344 0.35944438 1.1576625
3.0390868 0.19815725 1.2737055
4.8619366 0 2.3530836
2.5536251 0.16650374 1.2385297
2.7110186 0.35504195 1.3232847
2.3063257 0.45631802 1.1378555
4.1167798 1.0971047 2.06198
3.1688602 1.0696943 1.618691
4.4075961 1.8151881 2.3070102
4.0037251 1.962617 2.1580157
1.6531913 0.9484998 0.92244917
2.2501371 1.49358 1.3070972
2.5126188 1.9144975 1.5288393
2.3022323 2.00386 1.4771904
2.9456966 2.921819 2.0080333
1.6957629 1.9165367 1.2385297
2.7060351 3.4921196 2.1381612
2.4730873 3.6607873 2.1381612
0.61320579 1.0489186 0.58804184
0.39483279 0.78914011 0.42706603
0.26564941 0.63042235 0.33109444
0.29184216 0.84187877 0.43124059
0.25238118 0.91697663 0.46030164
0.19317889 0.93627882 0.46268559
0.1219958 0.87609184 0.42810273
0.0703279 0.95839572 0.46509221
0.0080080992 0.98391432 0.47621131
-0.055878825 0.9797526 0.47495195
-0.11149681 0.90874809 0.44311458
-0.18808936 0.99302268 0.48914906
-0.25298715 0.98133987 0.49047822
-0.34315097 1.0445273 0.53211248
-0.44646242 1.1096531 0.57889009
-0.49009022 1.020717 0.54800034
-1.7288141 3.0708776 1.7055831
-2.2663083 3.475342 2.0080333
-1.3868787 1.8512251 1.1194994
-2.0402291 2.3829045 1.5182475
-1.9829627 2.0319805 1.3741206
-1.6231867 1.4599298 1.0566009
-1.963897 1.5475637 1.2101303
-1.5563205 1.0699403 0.91405827
-1.9453593 1.1586181 1.0958524
-1.6085794 0.82126194 0.87411779
-2.0361733 0.87759155 1.0731031
-2.0998716 0.74713165 1.078709
-2.0270402 0.57569379 1.0198469
-2.0298121 0.43605649 1.0048031
-2.0044379 0.29576737 0.98061341
-2.0292211 0.16552071 0.98536563
-1.6672912 0.027142033 0.92266351
-2.011472 0.16407295 1.1166791
-1.2103477 0.17859438 0.67695796
-2.0537503 0.441199 1.1623021
-1.5973583 0.45366108 0.91880065
-1.9790702 0.70415056 1.1623021
-1.5982635 0.68885219 0.96298915
-2.0243974 1.0335582 1.2576783
-1.9961618 1.188875 1.2855657
-2.0864964 1.434426 1.401002
-1.9538629 1.5396568 1.3764292
-1.3111033 1.1792352 0.9757213
-1.9032745 1.9503226 1.5078497
-1.8065141 2.1099348 1.5369202
-2.0857482 2.7840858 1.9248354
-1.7376976 2.6647272 1.7602422
-1.8485329 3.2835329 2.0849617
-1.1795244 2.4566102 1.5078497
-0.72466791 1.8011147 1.0742282
-0.3335695 1.015362 0.59135854
-0.15134698 0.5870766 0.33546048
-0.09107808 0.48084912 0.27079284
-0.056164075 0.45776191 0.25518698
-0.02672459 0.46857619 0.25969273
0.0038423918 0.4720951 0.26122713
0.032162081 0.43828976 0.24316545
0.066484921 0.47745004 0.26673046
0.096251376 0.46650085 0.26356003
0.13106415 0.47619539 0.273285
0.15647864 0.45139486 0.26434615
0.18889137 0.44826505 0.2691544
0.21124679 0.42221242 0.26122713
0.41475737 0.70946282 0.45471829
0.81861806 1.2117592 0.80914921
2.1986063 2.837286 1.9860984
2.67258 3.0205271 2.2316103
1.48383 1.4718022 1.1564142
2.8899479 2.5154068 2.1199405
2.114069 1.6108214 1.470621
2.811161 1.8659725 1.8669426
2.3196819 1.3308911 1.4797695
2.0633533 1.0114511 1.2714821
5.0122266 2.0641942 2.9993336
3.1030493 1.0474789 1.8121572
5.9624295 1.5889628 3.4142587
1.9994448 0.39560011 1.1277744
2.7541282 0.3606877 1.5369202
2.8633628 0.18669955 1.587713
2.0236955 0 1.2688198
2.6165745 0.17060824 1.6440277
1.9964386 0.26145872 1.2624191
2.7436945 0.54285359 1.7535937
4.0181007 1.0708072 2.6072006
4.2931123 1.4492017 2.8409257
3.6751745 1.5135535 2.4920254
2.3843906 1.1688229 1.6649243
2.3328769 1.3384616 1.6863118
1.747884 1.1601981 1.3153409
2.5411153 1.9362106 2.0030251
2.4097519 2.0974448 2.0030251
1.6519279 1.6385376 1.4588169
1.4825704 1.6755884 1.40276
2.0792909 2.6833103 2.1283791
1.3643427 2.019568 1.5280979
0.54435921 0.93115318 0.67626101
0.20885777 0.41743755 0.2926572
0.16733427 0.39710712 0.27018094
0.11429548 0.32970884 0.21878998
0.11260797 0.40913856 0.26606113
0.079839095 0.38695559 0.24772432
0.058364306 0.41913322 0.26532438
0.027232353 0.37110975 0.23330462
0.0034441347 0.42316329 0.26532438
-0.021320835 0.37382931 0.23476501
-0.053837027 0.43879545 0.27717969
-0.081453614 0.43003649 0.27441895
-0.14735064 0.57157481 0.37008381
-0.2592293 0.78907561 0.52074975
-0.72230077 1.7952313 1.213266
-0.9176181 1.9111347 1.3292098
-1.6272548 2.8904786 2.0797298
-1.478608 2.2674181 1.6971949
-1.9888165 2.6547003 2.0797298
-2.2604606 2.640126 2.1791511
-2.0480359 2.0986621 1.8385464
-1.4820704 1.3330067 1.2497932
-2.0725472 1.6331809 1.6544157
-1.4386604 0.98905128 1.0946112
-1.9877266 1.1838511 1.4505597
-1.5619124 0.79743606 1.0995396
-1.8870854 0.81333458 1.2883831
-2.0079265 0.71441758 1.3362449
-1.4263886 0.40510446 0.92968798
-2.1518118 0.46226519 1.379927
-1.667155 0.24599919 1.0565937
-2.0376322 0.16620681 1.2818011
-1.424049 0.023182265 1.0053368
-1.9648254 0.16026804 1.3915315
-1.5338186 0.22632456 1.0944105
-1.3979238 0.3003104 1.0092752
-1.4668343 0.41659135 1.076353
-1.9568671 0.69625074 1.4661347
-1.4730237 0.63487381 1.1322373
-1.9109124 0.9756183 1.5144999
-1.9386381 1.154615 1.5927587
-1.8383666 1.2638416 1.5747368
-1.94915 1.535943 1.7517
-1.7473505 1.5716054 1.6589129
-1.9347799 1.9826066 1.9554327
-1.3654182 1.5947528 1.481939
-1.0371997 1.3844688 1.2210933
-1.7605662 2.699796 2.2751253
-1.7697322 3.1435597 2.5464382
-0.93896079 1.9555854 1.5312753
-1.7153054 4.2632799 3.2437971
-1.3636817 4.1509504 3.0841269
-0.81714493 3.1697142 2.3105819
-0.32046661 1.6919119 1.2155164
-0.16817723 1.3707184 0.97481406
-0.056655969 0.99337864 0.70234275
0.0086730504 1.0656135 0.75221705
0.055377439 0.75465786 0.53412795
0.12060674 0.86611646 0.61727071
0.20953409 1.0155474 0.731951
0.23698428 0.86103511 0.6303854
0.26295522 0.75854844 0.56670153
0.36610839 0.86882526 0.66550869
0.57603151 1.1512963 0.90871781
0.86512184 1.4798334 1.2099859
2.2241354 3.2922761 2.8045502
1.2390896 1.5990365 1.4279425
2.0565541 2.3242998 2.1906977
1.9404652 1.924736 1.9292556
2.1931646 1.9089276 2.0523884
2.2805099 1.7376416 2.0238032
1.6508875 1.0958143 1.398677
2.179415 1.2504146 1.7736187
2.7457657 1.3459681 2.1585138
3.1236956 1.286437 2.3846107
3.1503789 1.0634557 2.3470626
1.5566243 0.41483393 1.1371341
2.4194281 0.47869587 1.7409256
2.1391141 0.28014389 1.5228453
2.401855 0.1566079 1.6990145
1.5945815 0 1.2614872
2.137032 0.13934067 1.6942145
2.1114748 0.27652413 1.6846697
1.6989276 0.33614129 1.3700911
2.3453462 0.62502509 1.9201798
2.3142405 0.78120512 1.9323127
2.7754326 1.1430112 2.3745782
2.2792864 1.117301 2.0081553
1.0757799 0.61721653 0.98118478
1.3647736 0.90589976 1.2958884
1.1988991 0.91350484 1.1924111
1.6623269 1.4468873 1.7434595
1.6913331 1.6776233 1.884604
1.2669584 1.4319054 1.5125568
1.6858293 2.1755509 2.177352
2.3249161 3.4414566 3.2856123
1.5858849 2.7127342 2.4858892
3.1222153 6.2402749 5.5201735
1.5970683 3.7900615 3.2536783
0.81023681 2.3372948 1.9570036
1.146942 4.1671848 3.4192834
0.68815047 3.335254 2.6941252
0.60220534 4.3246336 3.4542661
0.30695388 4.1830239 3.3181241
0.035536725 4.3662167 3.4542661
-0.25646946 4.4968128 3.5632486
-0.30912611 2.5195136 2.0081553
-1.0042448 5.3019371 4.2689857
-1.347086 5.2253613 4.2689857
-1.7928615 5.4573436 4.544363
-2.2902684 5.6923122 4.8540654
-1.0247731 2.1343079 1.8730121
-1.7279816 3.0693986 2.7865815
-1.3175304 2.0204084 1.9081857
-1.7471783 2.3321581 2.3053174
-1.7063906 1.9929947 2.0756311
-1.7728784 1.8167031 2.0081553
-1.839251 1.6542629 1.9570036
-1.9184738 1.51177 1.9323127
-1.1770022 0.80916631 1.1299525
-1.9851676 1.1823272 1.8279213
-1.4265164 0.72830945 1.2671041
-1.9230357 0.82882917 1.656617
-1.6162971 0.5750764 1.3571905
-1.9078349 0.54183865 1.5689946
-1.8407942 0.3954505 1.4894928
-1.9516661 0.28798059 1.5606979
-1.3314399 0.10860368 1.0568118
-1.8943939 0.030839065 1.6749591
-1.9397925 0.15822615 1.7205672
-1.9359007 0.28565428 1.7299623
-1.3233221 0.284284 1.1965723
-1.4524692 0.41251156 1.3348359
-1.8742889 0.66686952 1.7587187
-1.4635668 0.63079792 1.408924
-1.842966 0.94092822 1.8293344
-1.1818708 0.7038992 1.2161034
-1.8988043 1.3053913 2.0370579
-1.8327296 1.4442029 2.0628145
-1.8029729 1.6216335 2.1437793
-1.6826643 1.7242589 2.1298847
-1.6864682 1.9697261 2.2923985
-0.87441659 1.1671835 1.2892945
-1.2278836 1.8829368 1.9872725
