# .PCD v0.7 - Point Cloud Data file format
VERSION 0.7
FIELDS x y z
SIZE 4 4 4
TYPE F F F
COUNT 1 1 1
WIDTH 1568
HEIGHT 1
VIEWPOINT 0 0 0 1 0 0 0
POINTS 1568
DATA ascii
12.095496 8.6086693 0.40567285
13.22402 9.091259 0.43850079
13.399614 8.8943014 0.43946394
12.827748 8.2170963 0.41626632
12.816925 7.9189367 0.41167727
13.505673 8.0437155 0.42953688
13.45495 7.719625 0.42387074
13.517503 7.4657311 0.42195669
13.678092 7.2664251 0.42322096
13.753346 7.0217857 0.42195669
13.102394 6.4227638 0.39872462
14.071045 6.6157365 0.42486832
13.60472 6.1281099 0.40772167
13.54269 5.836905 0.40296161
14.685758 6.0480614 0.43398643
14.796906 5.8139768 0.4344165
14.390349 5.3855233 0.41985103
15.15234 5.3911829 0.43946394
15.048155 5.079721 0.43398643
14.973733 4.7845473 0.42953688
13.869943 4.184298 0.39586708
14.922061 4.2379708 0.42387074
15.361988 4.0939064 0.4344165
14.087085 3.5095985 0.3966957
14.400733 3.3397632 0.4039436
14.285733 3.0689473 0.39926353
14.26362 2.8221283 0.39730889
14.621852 2.6464512 0.40603346
15.004625 2.4642079 0.4154937
15.033577 2.2182987 0.41524041
15.114423 1.9794235 0.4165282
15.135118 1.7320548 0.41626632
15.123939 1.4818106 0.41524041
14.414457 1.1757671 0.39518312
15.0505 0.98133618 0.41212812
14.984577 0.73232478 0.40994218
14.362626 0.46774581 0.39266676
14.440205 0.23507382 0.39463079
14.893206 0 0.61062509
14.283919 0.23252964 0.58572185
14.93509 0.48638913 0.61266702
15.008796 0.73350835 0.61609876
14.750845 0.96179783 0.60607255
14.809963 1.208028 0.60922879
14.987167 1.4684099 0.6174199
15.081643 1.7259351 0.62238699
14.564504 1.9074048 0.60224736
15.516517 2.2895594 0.64306945
15.649775 2.5701606 0.65024006
14.427279 2.6112349 0.60113257
15.469433 3.0607042 0.64654577
15.389378 3.3060389 0.64536369
14.570996 3.37925 0.61327004
14.438105 3.5970502 0.61006057
14.167233 3.7755086 0.60113257
14.367529 4.0804801 0.61236882
14.30617 4.3158994 0.61266702
14.827799 4.7379169 0.63822448
14.492164 4.8920379 0.62712264
13.714252 4.8795133 0.59681821
14.001904 5.2401495 0.61296737
14.83487 5.8288937 0.6534999
14.027927 5.7771459 0.62201327
14.652354 6.3151708 0.6541729
14.460163 6.5134354 0.65024006
14.181608 6.6677198 0.64250994
13.230199 6.4854136 0.60410875
13.921307 7.1075377 0.64086396
13.682158 7.2685847 0.63521773
13.113122 7.2423911 0.61419159
12.827091 7.3593984 0.60632563
13.363298 7.9589195 0.63771152
12.73754 7.8698888 0.61388212
12.959481 8.3014803 0.63100797
13.408286 8.9000568 0.65982783
13.094738 9.0023794 0.65152347
12.503741 8.8992271 0.62924331
12.873667 9.481945 0.6555407
12.844505 9.7869101 0.66208088
11.714281 9.2309303 0.61148739
12.721782 10.364909 0.6727978
11.603977 9.7727118 0.62201327
11.150103 9.7050352 0.60607255
11.965467 10.762005 0.65982783
11.712114 10.884161 0.6555407
11.142179 10.697739 0.63330418
11.206264 11.115427 0.64714581
11.143557 11.419021 0.6541729
10.672005 11.298011 0.6372034
10.021808 10.961736 0.6089555
10.55123 11.924911 0.65283412
9.7329741 11.367717 0.61357492
9.6607847 11.662414 0.62091035
9.7657881 12.187663 0.64032584
9.4404488 12.182833 0.63191408
8.9550753 11.953361 0.61236882
9.0723448 12.529851 0.63425219
8.9155579 12.744997 0.63771152
8.6092968 12.74391 0.63056093
7.8807206 12.08494 0.59152931
7.7158165 12.26382 0.59405822
7.5726109 12.482458 0.59859824
7.4246545 12.700236 0.60316575
7.3451724 13.047165 0.61388212
7.150085 13.198689 0.6154533
6.7012687 12.865914 0.59477037
6.7381458 13.467323 0.6174199
6.4584961 13.451191 0.61177903
6.2211714 13.516459 0.61006057
5.783752 13.124449 0.58803982
5.7572808 13.662814 0.60788143
5.5269732 13.73693 0.60709542
5.2128797 13.591036 0.59681821
5.0559587 13.852144 0.60458976
4.8561139 14.008459 0.60788143
4.5304074 13.790239 0.59513283
4.3651447 14.054698 0.60339916
4.1576037 14.198353 0.60658044
3.8483467 13.9822 0.59459078
3.6724591 14.245509 0.60316575
3.4538202 14.36045 0.60557151
3.144104 14.076675 0.59136826
2.8967605 14.039709 0.58775628
2.7431655 14.482614 0.60434842
2.5012009 14.491346 0.60293388
2.229038 14.299476 0.59336245
2.0313389 14.58771 0.60387063
1.7964838 14.642133 0.60483271
1.5224119 14.335123 0.59104878
1.3163223 14.663732 0.60363412
1.0530559 14.350553 0.58995819
0.83767557 14.687403 0.60316575
0.58093172 14.267658 0.58546221
0.35821468 14.668079 0.60157418
0.1195942 14.69393 0.60247469
-0.11768386 14.459215 0.59285104
-0.35875091 14.690037 0.60247469
-0.59826821 14.693441 0.60293388
-0.82019126 14.380841 0.59057623
-1.078742 14.700591 0.60434842
-1.3163223 14.663732 0.60363412
-1.5506753 14.601252 0.60202152
-1.7436963 14.211892 0.58706045
-2.039597 14.647016 0.60632563
-2.2739716 14.587729 0.60532361
-2.4742441 14.335167 0.59643579
-2.7742553 14.646753 0.61119789
-2.9972568 14.526783 0.60814708
-3.1700389 14.19279 0.59624624
-3.3774581 14.042948 0.5921827
-3.6710474 14.240033 0.60293388
-3.8602881 14.025586 0.59643579
-4.1489892 14.168933 0.60532361
-4.4236574 14.243093 0.61148739
-4.6195049 14.061446 0.60683703
-4.7178698 13.609667 0.59057623
-5.0993738 13.971091 0.60978132
-5.3728604 14.008139 0.6151343
-5.4066854 13.437963 0.59388274
-5.7941957 13.750419 0.61177903
-6.0031066 13.622207 0.61034179
-5.9810801 12.994823 0.58651674
-6.403615 13.336888 0.60658044
-6.9063945 13.803597 0.63283664
-7.2647433 13.947742 0.64478153
-7.0939922 13.095145 0.61062509
-7.9497671 14.121101 0.6644119
-8.228651 14.075511 0.66848099
-8.0937471 13.341483 0.63979298
-8.8615065 14.084825 0.68226749
-9.0500689 13.878113 0.6793009
-8.8357372 13.079099 0.64714581
-9.538475 13.635471 0.68226749
-9.9465752 13.737254 0.69537014
-9.3877468 12.530896 0.64195591
-9.3209162 12.028577 0.62391293
-10.569702 13.190946 0.69303715
-10.663416 12.872781 0.68535066
-9.8266563 11.477135 0.61948073
-11.257953 12.723641 0.69656098
-11.386764 12.454708 0.69189435
-10.879766 11.51796 0.64960837
-11.825328 12.117644 0.69419563
-12.147388 12.048923 0.7014944
-11.58313 11.121101 0.65836716
-12.020435 11.170686 0.6727978
-12.506354 11.248491 0.68965465
-11.722827 10.203533 0.6372034
-11.261104 9.4839487 0.60363412
-13.46788 10.972783 0.71225554
-13.344038 10.515189 0.69656098
-12.486641 9.5142345 0.6436345
-13.459082 9.913125 0.68535066
-13.914419 9.9032421 0.70023483
-12.94765 8.9012594 0.64420515
-13.823836 9.1758881 0.68027723
-14.054176 9.0027113 0.68430954
-15.16891 9.3721104 0.73106128
-12.478743 7.4320951 0.59549952
-14.84043 8.5145283 0.7014944
-14.632382 8.08148 0.68535066
-13.87574 7.3714247 0.64420515
-15.054649 7.6861672 0.69303715
-14.96412 7.3353777 0.6832819
-13.999341 6.5820241 0.63425219
-15.042906 6.7759256 0.67644465
-15.049715 6.4864335 0.67191356
-15.153301 6.2406106 0.67191356
-14.054662 5.5223351 0.61913043
-15.517149 5.8072228 0.6793009
-15.501569 5.5154376 0.67459881
-14.130849 4.770071 0.61148739
-14.629254 4.6744761 0.62967861
-15.689615 4.7332587 0.67191356
-15.048835 4.2739758 0.64140731
-16.032478 4.2725892 0.68027723
-16.009195 3.9884653 0.67644465
-15.265722 3.5403683 0.64250994
-14.75553 3.169872 0.61878294
-16.118961 3.1892166 0.67369282
-16.168736 2.9264262 0.67369282
-15.424113 2.5331004 0.64086396
-16.150003 2.3830345 0.6693238
-16.314222 2.1365523 0.67459881
-15.696287 1.7962747 0.64775199
-15.135403 1.4829338 0.62352669
-15.255083 1.2443357 0.62753946
-15.460194 1.0080494 0.63521773
-15.074184 0.73670405 0.61878294
-16.158386 0.52622807 0.66284901
-15.504821 0.25240484 0.84808379
-15.318639 0.49888012 0.83823317
-15.909525 0.77752876 0.87114352
-15.769855 1.0282402 0.86429775
-15.307755 1.2486321 0.83997422
-15.743039 1.5424687 0.86512256
-15.715847 1.7985132 0.86512256
-15.032687 1.9687194 0.82917053
-15.710232 2.3181431 0.86850882
-14.707473 2.4154065 0.81513906
-14.800482 2.678782 0.82260191
-14.46779 2.8625243 0.80659413
-15.541647 3.3387504 0.86937779
-15.516695 3.598573 0.87114352
-14.862042 3.7026684 0.83766288
-15.284963 4.073379 0.86512256
-15.026264 4.2675657 0.85429931
-14.643878 4.4177799 0.83653712
-15.20419 4.8581853 0.87294739
-15.204253 5.1324143 0.87763184
-14.4499 5.1412554 0.83880842
-14.056845 5.2607102 0.82085437
-14.069512 5.5281701 0.82673973
-13.945958 5.7433882 0.82486433
-14.154827 6.1007366 0.8429808
-14.583963 6.5692 0.87479061
-14.112412 6.6351862 0.8528716
-13.860529 6.7943997 0.84422177
-14.356312 7.3296304 0.88156992
-14.336054 7.6159644 0.88782156
-13.532573 7.4740543 0.84548551
-13.526266 7.7605414 0.8528716
-13.947201 8.3066807 0.88782156
-13.878837 8.5750389 0.89223748
-13.088601 8.3841915 0.85009694
-12.710401 8.4368191 0.8343429
-13.513489 9.2902632 0.89686841
-12.557728 8.9376507 0.8429808
-13.169436 9.69979 0.89452517
-13.13282 10.006593 0.90298319
-12.258727 9.6599579 0.85358196
-12.713471 10.358137 0.89686841
-12.899212 10.863541 0.92232502
-12.321393 10.724524 0.8933745
-11.239316 10.108888 0.82673973
-12.077696 11.223898 0.90172988
-11.943624 11.467216 0.90553737
-10.6505 10.564168 0.82042581
-10.937734 11.208109 0.85649347
-11.419282 12.089123 0.90949196
-10.663404 11.663507 0.86429775
-11.309937 12.782393 0.93344319
-10.968164 12.810369 0.92232502
-10.967935 13.240393 0.94030625
-9.5773973 11.952553 0.83766288
-10.399439 13.420403 0.92854577
-10.12812 13.519157 0.92384839
-9.3133039 12.862641 0.86850882
-9.6509933 13.796319 0.92082214
-8.7153034 12.900826 0.85147107
-8.6743288 13.301924 0.86850882
-8.8427181 14.054961 0.90815693
-8.540082 14.077208 0.90049201
-7.8969793 13.50817 0.85575491
-7.386703 13.120935 0.82349622
-7.8215742 14.438224 0.89806151
-7.5754499 14.544274 0.89686841
-6.9440179 13.878794 0.84874856
-6.8944325 14.35912 0.87114352
-6.5365605 14.201691 0.85502356
-6.0133119 13.645365 0.81552786
-5.8599901 13.906558 0.82532758
-5.5713401 13.847201 0.81631404
-5.2303858 13.636678 0.798778
-4.9342408 13.518664 0.78705591
-4.8615165 14.024044 0.81176394
-4.6431494 14.133419 0.81361192
-4.2554169 13.701401 0.78465033
-4.1711564 14.244635 0.81176394
-3.9233823 14.254826 0.80859786
-3.6114593 14.00889 0.79120755
-3.4602494 14.387181 0.80928433
-3.2215214 14.423285 0.80825818
-2.9233291 14.168479 0.79120755
-2.7446797 14.490608 0.80659413
-2.5178978 14.588085 0.80963117
-2.2219195 14.25381 0.78896707
-1.9439144 13.959887 0.77084434
-1.7982441 14.656481 0.80758572
-1.5661188 14.74667 0.81104296
-1.2949789 14.425966 0.79214042
-1.0824764 14.751482 0.80893993
-0.84151387 14.754702 0.80825818
-0.5890761 14.467684 0.79190516
-0.35977516 14.731977 0.8059442
-0.1204327 14.796952 0.80928433
0.11924983 14.651619 0.80133563
0.35268947 14.441834 0.79007137
0.59697264 14.661622 0.80252063
0.82053238 14.386822 0.78810585
1.0397549 14.169293 0.77701396
1.3139364 14.637153 0.80373687
1.5496622 14.591713 0.80252063
1.7534579 14.291453 0.78747237
2.0284269 14.566798 0.80435705
2.2635148 14.520646 0.80373687
2.5014956 14.493055 0.80435705
2.6528115 14.005588 0.77959639
2.9777777 14.432375 0.8059442
3.2122984 14.381993 0.8059442
3.3839471 14.069928 0.79143876
3.6877468 14.304811 0.80792081
3.794482 13.786492 0.78203189
3.9933968 13.637579 0.77716947
4.3946977 14.149852 0.81033212
4.6012397 14.005847 0.8062681
4.8228226 13.912424 0.80530298
4.9394917 13.533051 0.78789353
5.2815657 13.770114 0.80659413
5.5072422 13.687891 0.80692244
5.629425 13.359396 0.79285455
5.9698324 13.546701 0.80963117
6.1842566 13.436255 0.80893993
6.2825279 13.0847 0.79382652
6.6326122 13.256397 0.81068629
6.8818579 13.212632 0.81475312
6.8733292 12.687813 0.78918546
7.1161828 12.640413 0.7933377
7.5709591 12.950498 0.82042581
7.7807508 12.825549 0.82042581
7.6758604 12.200312 0.78831935
8.1374378 12.478611 0.81475312
8.3554506 12.368155 0.81631404
8.3835926 11.984541 0.79989672
8.9645023 12.38091 0.83598149
9.2975159 12.410454 0.84808379
9.2030373 11.876455 0.82172137
9.6452627 12.037248 0.84359848
9.595005 11.583005 0.82260191
9.746316 11.3833 0.81957847
9.8097858 11.086935 0.80963117
10.673581 11.674638 0.86512256
10.883232 11.521628 0.86679804
10.634464 10.897343 0.83274555
11.263535 11.172235 0.86764896
11.421564 10.96598 0.86595595
11.258457 10.462573 0.84056485
11.879958 10.685096 0.873864
12.117623 10.547163 0.87859994
12.287693 10.348528 0.87859994
11.406525 9.2933197 0.80467027
11.887027 9.3670549 0.82770026
12.682797 9.6636963 0.87204063
11.924746 8.7830276 0.80998039
13.147664 9.357523 0.88258237
13.180833 9.0615683 0.87479061
12.67809 8.4153728 0.83222198
13.588766 8.7045832 0.88258237
13.047742 8.0615473 0.83880842
13.376154 7.9665761 0.85147107
12.903621 7.403306 0.81361192
13.563619 7.4912009 0.84742516
13.175019 6.9991703 0.81591952
13.098906 6.6876602 0.80435705
14.049881 6.8872199 0.85575491
13.796934 6.4868588 0.83380592
13.691972 6.1674109 0.8212862
14.357041 6.187891 0.85502356
14.372566 5.9190788 0.85009694
14.538522 5.7124529 0.85429931
14.071692 5.2662673 0.82172137
14.729233 5.2406421 0.85502356
14.917533 5.0356278 0.86108154
13.922057 4.4485059 0.79933381
14.097114 4.252831 0.80530298
14.964376 4.249989 0.85078073
14.694503 3.9160242 0.83170283
15.012199 3.740078 0.84612614
14.620951 3.3908353 0.82085437
14.643909 3.1458929 0.81915963
15.905526 3.1469874 0.88674945
15.993447 2.8947003 0.88890618
16.484028 2.70717 0.91360193
14.856033 2.192101 0.8212862
15.462382 2.0249934 0.8528716
16.49761 1.8879777 0.90815693
15.053273 1.4748869 0.82721806
16.323118 1.3314538 0.89568973
16.385904 1.0684084 0.89806151
15.247333 0.74516612 0.83488446
15.780047 0.51390678 0.86348134
15.672203 0.25512967 0.85723931
15.324391 0 1.0482171
15.645411 0.25469351 1.0703171
16.042847 0.52246529 1.0979426
15.99708 0.78180766 1.0955362
15.191015 0.99049819 1.0413004
16.108238 1.3139263 1.1054931
15.992658 1.5669258 1.0991659
15.204226 1.7399637 1.0467856
15.915448 2.0843279 1.0979426
16.065683 2.3705921 1.1108217
15.230749 2.5013442 1.0557679
16.210541 2.9339929 1.1268468
15.950481 3.1558819 1.1121931
15.877398 3.4108784 1.1108217
14.12329 3.2754197 0.9916991
15.022614 3.7426724 1.058985
14.77739 3.9381132 1.0460792
14.272515 4.0534954 1.0148762
15.221337 4.5919881 1.0875155
14.691519 4.6943717 1.0549818
14.12326 4.7675095 1.0196139
14.667706 5.2187505 1.0649118
14.64219 5.4797735 1.0693942
14.514109 5.7028604 1.0666789
13.598433 5.6002665 1.0059503
14.285377 6.1570029 1.0640409
14.149095 6.3733172 1.0614773
13.53632 6.3643265 1.0231434
13.779203 6.7545342 1.0496739
13.767533 7.0290289 1.0573616
13.278948 7.0543818 1.0285212
13.500992 7.4566121 1.0549818
13.526157 7.7604795 1.0666789
13.579192 8.0875015 1.0811006
12.541205 7.7485833 1.0083708
13.176004 8.4401798 1.0703171
13.059696 8.6686726 1.0721905
12.460824 8.566576 1.0343357
12.25048 8.7189741 1.0285212
12.868076 9.4778271 1.0931822
12.10112 9.2204857 1.0406406
12.450279 9.8109016 1.0842576
12.43033 10.127453 1.0967327
12.136357 10.221074 1.0853322
11.47555 9.9883032 1.0406406
11.895285 10.698881 1.0943527
11.719563 10.891084 1.0943527
10.967404 10.529936 1.0399864
11.434636 11.341949 1.1016539
10.473801 10.732708 1.0257808
10.49446 11.110051 1.0453787
11.055953 12.092871 1.1207718
10.624771 12.008025 1.0967327
9.8232164 11.473116 1.0331354
9.8536377 11.895225 1.0565611
9.8550653 12.299081 1.0780398
9.5927601 12.37939 1.0712492
8.8210926 11.774518 1.0063469
9.168829 12.663106 1.0693942
8.7962408 12.574431 1.0496739
8.2945232 12.277966 1.01352
8.158165 12.510396 1.0216082
7.8767495 12.519612 1.0117557
7.5486598 12.442978 0.99549985
7.5567846 12.926251 1.0241864
7.3055954 12.976866 1.0186386
7.1176195 13.138761 1.0221161
6.6171503 12.704414 0.97981673
6.6828642 13.356833 1.0216082
6.4307384 13.393379 1.0162617
6.091054 13.233758 0.99649417
5.8359566 13.24291 0.98989844
5.7588425 13.666521 1.0144209
5.4235539 13.479889 0.99388266
5.2924747 13.798556 1.0108919
5.0307488 13.783074 1.0036249
4.8112483 13.879035 1.0047761
4.4551077 13.561032 0.97637439
4.3603249 14.039179 1.0055563
4.1377726 14.130628 1.0071483
3.8238628 13.893242 0.98566151
3.6771107 14.263553 1.007553
3.4603155 14.387456 1.0121921
3.1536901 14.119594 0.98960441
2.9764712 14.426042 1.007553
2.7412646 14.472579 1.007553
2.5073652 14.527061 1.0083708
2.16557 13.892323 0.96173698
2.0267224 14.554558 1.0051649
1.78817 14.574372 1.0043899
1.5287894 14.395174 0.99019414
1.3153905 14.653351 1.0063469
1.0779945 14.690405 1.007553
0.82306951 14.431307 0.98873264
0.59925634 14.71771 1.007553
0.35508227 14.539814 0.99484706
0.1199315 14.735373 1.0079604
-0.11601809 14.254552 0.97507036
-0.35627654 14.588717 0.99819309
-0.58544254 14.378443 0.98432738
-0.82403994 14.448322 0.98989844
-1.0746102 14.644285 1.0043899
-1.3174995 14.676846 1.0079604
-1.5359732 14.462816 0.99484706
-1.793081 14.614399 1.0071483
-2.0275116 14.560225 1.0055563
-2.2358208 14.342988 0.9929356
-2.4770043 14.351157 0.99616069
-2.7337096 14.432691 1.0047761
-2.9888866 14.486216 1.0117557
-3.162324 14.158249 0.99231368
-3.3659582 13.995132 0.98459125
-3.6785977 14.26932 1.0079604
-3.8368981 13.940603 0.98902154
-4.1621184 14.213771 1.0130743
-4.3987637 14.162943 1.0144209
-4.5278373 13.782416 0.99231368
-4.8364534 13.951745 1.0100399
-5.0803485 13.918966 1.01352
-5.3512387 13.951766 1.0221161
-5.3954506 13.41004 0.98873264
-5.7588425 13.666521 1.0144209
-5.9997282 13.614541 1.0176775
-5.9804988 12.99356 0.97840738
-6.46138 13.457196 1.0211041
-6.9492054 13.889162 1.0623238
-7.0552316 13.545496 1.0446844
-7.7742147 14.350801 1.1164056
-8.006772 14.22236 1.1164056
-8.4631243 14.476589 1.1470244
-7.8617964 12.959143 1.0367956
-9.0336475 14.358431 1.1603574
-9.1890869 14.091294 1.1507056
-8.8561172 13.109266 1.082142
-9.6586218 13.807224 1.1525836
-10.019196 13.837551 1.1685756
-9.0353622 12.060529 1.0307918
-9.5360107 12.306154 1.0649118
-10.762253 13.431247 1.1772765
-10.803156 13.041474 1.1583736
-9.8883553 11.549196 1.0399864
-11.300433 12.771653 1.1664774
-11.42688 12.498586 1.1583736
-10.76362 11.395 1.0721905
-11.570931 11.856959 1.1332313
-11.924536 11.827876 1.1488526
-11.411966 10.956764 1.082142
-11.910618 11.068632 1.1121931
-12.317883 11.078976 1.1332313
-12.264586 10.67508 1.1121931
-11.586652 9.7581205 1.0361731
-12.574653 10.245037 1.1094663
-13.234851 10.429149 1.1525836
-12.353263 9.4126072 1.0623238
-13.228155 9.7430391 1.123772
-13.349255 9.5010004 1.1207718
-12.747953 8.7639723 1.0581695
-13.669596 9.0735073 1.1222627
-13.561772 8.6872911 1.1016539
-13.15051 8.125042 1.0573616
-12.870945 7.6656833 1.0247138
-14.034947 8.052392 1.1068022
-14.26887 7.8807125 1.1149848
-13.443936 7.1420307 1.0413004
-14.145867 7.2221875 1.086418
-14.461553 7.0890203 1.1016539
-13.812201 6.4940372 1.043996
-14.701499 6.6221423 1.1029192
-14.615427 6.2992554 1.0886247
-14.169794 5.8355713 1.0482171
-13.92173 5.4701037 1.0231434
-15.228194 5.6990829 1.1121931
-15.025366 5.3460054 1.0908788
-14.489845 4.8912554 1.0460792
-15.129294 4.8342538 1.086418
-15.190779 4.5827694 1.0853322
-14.66292 4.1643734 1.0426368
-15.347237 4.0899749 1.086418
-15.264705 3.8029861 1.0760506
-14.877881 3.4504216 1.0446844
-14.112038 3.0316329 0.98731273
-15.446337 3.0561345 1.0770402
-15.451756 2.796658 1.0741012
-14.737953 2.4204123 1.0216082
-15.606166 2.3027878 1.0790496
-15.598109 2.0427685 1.0760506
-15.13422 1.7319521 1.0419657
-15.744964 1.5426571 1.082142
-15.722928 1.2824972 1.0790496
-15.152994 0.98801911 1.0386941
-14.867174 0.72658706 1.0181563
-15.708654 0.51158172 1.0750711
-15.139833 0.24646316 1.243729
-14.919544 0.48588285 1.2261198
-15.74015 0.76925105 1.2944165
-15.545259 1.0135959 1.2795767
-14.97944 1.2218518 1.2344761
-15.570459 1.5255595 1.2850592
-15.490256 1.7726967 1.2806519
-14.96929 1.9604167 1.2400554
-15.450629 2.2798371 1.2828341
-15.385259 2.5267193 1.2806519
-14.390936 2.6046572 1.2012559
-14.434941 2.8560247 1.20865
-15.256503 3.277494 1.2817377
-15.425596 3.5774457 1.3006641
-14.719629 3.6671882 1.2460065
-15.104251 4.0252204 1.2839411
-15.145226 4.3013515 1.2932051
-14.487823 4.3707013 1.2429823
-14.755118 4.7146935 1.272331
-14.93118 5.0402341 1.2944165
-14.291892 5.0850363 1.2460065
-13.856801 5.1858454 1.2152731
-14.723686 5.7852073 1.2993885
-14.716042 6.060533 1.3072475
-13.992704 6.0308614 1.2515478
-14.382132 6.4782867 1.2956403
-14.34433 6.7442265 1.3019531
-13.629497 6.6811485 1.2467784
-13.400314 6.8415446 1.2358379
-13.258124 7.0433192 1.2331355
-13.409907 7.4063058 1.2583001
-12.922304 7.4140253 1.2237096
-13.618336 8.110815 1.3019531
-13.818241 8.5375996 1.3341751
-12.830381 8.2187834 1.2515478
-13.420179 8.9079514 1.3230503
-13.401716 9.2134209 1.3358396
-12.610158 8.974967 1.2713345
-13.030586 9.5975218 1.3292969
-12.968815 9.881628 1.3392284
-12.225657 9.6338978 1.2785118
-11.797468 9.6118355 1.2499311
-12.503316 10.530123 1.3426991
-12.346487 10.746367 1.344466
-11.582564 10.417613 1.2795767
-11.245404 10.450443 1.2609565
-12.064762 11.583522 1.3737942
-11.08839 10.998509 1.2828341
-11.83573 12.128304 1.3919525
-11.467092 12.139736 1.3716584
-10.594236 11.587851 1.2896439
-10.110145 11.426399 1.2531924
-10.947687 12.786452 1.3826271
-10.652925 12.860115 1.3716584
-9.9416027 12.407079 1.3059027
-10.592808 13.669944 1.4204866
-11.336757 15.132462 1.5530782
-8.7858553 12.13418 1.2305157
-9.8184652 14.035725 1.4069544
-9.5364981 14.116401 1.399294
-8.6843996 13.317367 1.3059027
-8.7759266 13.9488 1.3536325
-8.9349451 14.728086 1.4149541
-8.7809649 15.020271 1.4291023
-7.760601 13.785088 1.2993885
-8.3945093 15.495832 1.447571
-7.8149881 15.004169 1.3895729
-6.9882689 13.967237 1.2828341
-7.0941982 14.775175 1.3462546
-6.8436594 14.86891 1.344466
-6.0318966 13.687537 1.2286031
-5.6493688 13.406724 1.1949838
-5.5609384 13.821349 1.2237096
-5.3511128 13.951438 1.227352
-4.9289484 13.504166 1.1807888
-4.8459983 13.979279 1.2152731
-4.6590309 14.18176 1.2261198
-4.3165894 13.89836 1.1953839
-4.1302319 14.104877 1.2072033
-3.9278991 14.271237 1.2158079
-3.5945094 13.943141 1.1827146
-3.4465401 14.330179 1.2106252
-3.1328144 14.02613 1.1804739
-2.9033265 14.071532 1.180161
-2.6586056 14.036178 1.1734105
-2.5131969 14.560849 1.2136915
-2.2592888 14.493537 1.2048554
-1.9950843 14.327354 1.1881833
-1.7919583 14.605248 1.20865
-1.5558901 14.650355 1.2101264
-1.2941194 14.416392 1.1889032
-1.0790943 14.705391 1.2111275
-0.83214498 14.590432 1.2003849
-0.59370029 14.581253 1.1986756
-0.34233132 14.017692 1.1517364
-0.11971173 14.70837 1.2081645
0.11966395 14.702499 1.2076823
0.35153899 14.394725 1.1827146
0.59722161 14.667738 1.2057853
0.83588874 14.656074 1.2057853
1.0549554 14.376438 1.1840352
1.30999 14.59319 1.2034836
1.5497088 14.592153 1.2053188
1.7452164 14.224281 1.1771232
1.9693575 14.142602 1.1728616
2.2627988 14.516055 1.2067274
2.4778035 14.355788 1.196599
2.690464 14.204375 1.1874717
2.9746151 14.417047 1.2091388
3.1845102 14.257581 1.1999534
3.3708405 14.015432 1.1840352
3.5829947 13.898476 1.1789259
3.8940122 14.148116 1.2053188
4.0532641 13.842029 1.1847067
4.2464247 13.672448 1.1759534
4.5908041 13.974083 1.2081645
4.8138185 13.88645 1.2072033
4.8773022 13.362666 1.1684163
5.2695742 13.73885 1.20865
5.4881053 13.640326 1.2076823
5.6189151 13.334455 1.1885422
5.9510822 13.504153 1.2121425
6.1675081 13.399867 1.2116332
6.2867165 13.093423 1.1930201
6.5344396 13.060183 1.1995248
6.8821697 13.213231 1.2237096
7.0827599 13.07441 1.2213696
6.913106 12.279689 1.1574889
7.3028693 12.491917 1.1885422
7.6911526 12.677858 1.2179849
7.752573 12.322242 1.1957865
8.1299686 12.467157 1.222531
8.3046122 12.292901 1.2185389
8.299325 11.864078 1.1892664
8.8695784 12.249809 1.2422416
9.1661272 12.235075 1.2557129
9.6710291 12.480394 1.2968768
9.2049561 11.487747 1.2091388
10.062533 12.147401 1.2956403
10.288601 12.016666 1.2993885
10.071011 11.382169 1.2483414
10.684766 11.686871 1.3006641
10.287136 10.890566 1.2305157
10.62134 10.883894 1.249133
11.22057 11.129617 1.2981261
11.579584 11.117697 1.3185478
11.720182 10.891658 1.3141937
11.138471 10.018187 1.2305157
12.081672 10.515872 1.315629
12.224652 10.295436 1.3127741
11.812728 9.6242685 1.2515478
12.608499 9.9355793 1.3185478
12.607848 9.6065884 1.3019531
12.260484 9.0303116 1.250736
12.815196 9.1208973 1.292006
12.903593 8.8709717 1.2861884
13.081327 8.6830301 1.2896439
12.453065 7.9770846 1.2147423
13.147035 8.1228952 1.269369
13.406885 7.984879 1.2817377
12.805572 7.3470511 1.2126552
13.695084 7.5638094 1.2850592
13.637271 7.2447391 1.2683998
13.461784 6.8729281 1.2415069
14.110939 6.9171505 1.290819
13.482279 6.3389187 1.2237096
13.538707 6.0983744 1.2196589
13.496918 5.8171773 1.2072033
14.453676 5.9524827 1.2839411
14.475176 5.6875629 1.277457
13.809531 5.1681547 1.2111275
14.676947 5.2220387 1.2795767
14.959559 5.0498142 1.2968768
14.285262 4.5645609 1.2318155
14.77289 4.4567003 1.2674396
15.023766 4.2668562 1.2828341
15.271123 4.0696907 1.2981261
14.053649 3.5012686 1.1896318
15.380681 3.567029 1.2968768
15.29604 3.2859874 1.2850592
14.743383 2.9170518 1.2344761
16.003237 2.896472 1.3358396
16.195133 2.659725 1.348065
14.868199 2.1938961 1.2344761
15.952838 2.0892246 1.3215325
15.895964 1.8191255 1.3141937
15.289338 1.498016 1.2618579
15.247505 1.2437176 1.2565678
15.865087 1.0344496 1.3059027
14.955303 0.73089409 1.2298734
14.41153 0.46933842 1.1843699
16.015068 0.26071119 1.315629
15.96301 0 1.5309504
15.167973 0.24692124 1.4548942
15.971805 0.52015167 1.532606
15.766078 0.77051818 1.5138681
15.176416 0.9895463 1.458602
15.520865 1.2660152 1.4934897
15.52461 1.5210674 1.4960345
15.432835 1.7661253 1.4897639
14.578344 1.9092174 1.4100915
15.513773 2.2891545 1.5039761
15.446677 2.5368061 1.5012763
14.347638 2.5968206 1.398383
15.469815 3.0607798 1.5124111
15.374294 3.3027985 1.5081292
15.013295 3.4818263 1.4780816
15.506289 3.8631732 1.532606
15.475271 4.1240954 1.5359724
15.548993 4.4160242 1.5502193
14.638413 4.416131 1.4664086
15.173279 4.8483081 1.5276929
14.681876 4.9560781 1.4861432
14.082396 5.010498 1.4335285
14.020923 5.2472672 1.4357762
14.635815 5.7506809 1.5081292
13.903006 5.7256994 1.4420314
14.454404 6.2298541 1.509542
14.478432 6.5216641 1.5229371
14.045844 6.603888 1.4885455
13.531701 6.6332097 1.4453101
13.904985 7.099205 1.4973257
13.631106 7.2414646 1.4803317
12.88615 7.1170344 1.4118249
13.5776 7.7899942 1.5012763
13.368016 7.9617295 1.4922358
12.989793 8.0257425 1.464406
13.16948 8.4359999 1.4999464
12.985332 8.6193123 1.494756
12.54901 8.627203 1.4605036
12.500951 8.8972416 1.4715722
12.603853 9.2832165 1.5012763
12.484838 9.5128613 1.5053465
11.648709 9.1792593 1.4223599
12.157506 9.9051723 1.5039761
12.133512 10.218679 1.5213853
11.360726 9.8883619 1.4444807
11.736192 10.55579 1.5138681
10.889471 10.119672 1.4257094
10.877025 10.443161 1.4461462
11.217833 11.126903 1.5153402
10.857936 11.126339 1.4909939
10.839172 11.474984 1.5138681
9.9088774 10.838214 1.4083929
10.439893 11.799077 1.5109692
10.086209 11.780281 1.4873387
9.6712818 11.675086 1.4539865
9.9500828 12.417662 1.5260905
9.756876 12.591181 1.5276929
9.0955238 12.140832 1.4548942
9.303297 12.848821 1.5213853
8.5293093 12.192846 1.4270838
8.198245 12.135451 1.4045595
7.8244276 11.998615 1.3737977
7.8109384 12.415009 1.4067281
7.6613555 12.628741 1.4166262
7.3561831 12.583113 1.3978894
7.2622967 12.899954 1.4197663
7.0513625 13.016453 1.4197663
6.7261438 12.913673 1.3964273
6.6329889 13.25715 1.4217045
6.4313307 13.394613 1.4250298
6.1979589 13.466026 1.4217045
5.7706847 13.094796 1.3724113
5.7308378 13.600061 1.4154009
5.4947934 13.65695 1.4118249
5.1787634 13.502087 1.3869164
5.0271745 13.773282 1.4061806
4.7740059 13.771602 1.3978894
4.481329 13.640848 1.3770298
4.35919 14.035524 1.4095215
4.1252127 14.087736 1.4078343
3.8848243 14.114734 1.4040263
3.552943 13.781905 1.3649849
3.4233367 14.233704 1.4040263
3.1985958 14.320644 1.4072794
2.8997984 14.054433 1.3762977
2.6611292 14.049501 1.3713909
2.4357421 14.112095 1.3734483
2.2220156 14.254426 1.3835968
2.0160635 14.478012 1.4019276
1.7821304 14.525146 1.4034964
1.5454689 14.552229 1.4034964
1.270821 14.15685 1.363188
1.0734466 14.628429 1.4067281
0.83455002 14.632601 1.4056367
0.58590186 14.389725 1.3812063
0.35796076 14.657681 1.4061806
0.11652359 14.316659 1.3731008
-0.11731198 14.413526 1.3823912
-0.35810015 14.663389 1.4067281
-0.59672815 14.655618 1.4067281
-0.82098603 14.394776 1.3827907
-1.0464815 14.260961 1.3713909
-1.3140149 14.638027 1.4095215
-1.5592499 14.681991 1.4160113
-1.7616184 14.357965 1.3873425
-2.0286288 14.568249 1.4106654
-2.2565432 14.475924 1.4050963
-2.4104717 13.965685 1.3591989
-2.6720715 14.107271 1.3770298
-2.982187 14.453745 1.4154009
-3.1582108 14.139834 1.3895113
-3.4510705 14.349017 1.4154009
-3.6889729 14.309567 1.4172454
-3.904793 14.187286 1.4112432
-4.0078616 13.686978 1.3677852
-4.3736353 14.082035 1.4141923
-4.5926714 13.979766 1.4112432
-4.7657351 13.747744 1.3954678
-5.0757442 13.906351 1.4197663
-5.1648583 13.465834 1.3831925
-5.427443 13.489555 1.39452
-5.7809548 13.718996 1.4277787
-6.015399 13.650101 1.4306104
-6.2659636 13.613776 1.4373037
-6.2852407 13.090349 1.3926595
-6.9980273 13.98674 1.4999464
-7.4759383 14.35322 1.5520936
-7.4972396 13.839519 1.509542
-8.424408 14.964202 1.6469569
-8.7702942 15.002019 1.6666118
-8.2032623 13.522004 1.5168278
-9.4598274 15.035818 1.7036885
-9.3981695 14.41192 1.6501122
-9.831748 14.553444 1.6844186
-8.7704067 12.537501 1.4674232
-10.255675 14.164154 1.6771295
-10.335981 13.796613 1.6533144
-9.6409521 12.441581 1.509542
-10.738129 13.401141 1.6469569
-10.591561 12.786039 1.592342
-10.33825 12.074655 1.5245054
-11.295385 12.765947 1.6347849
-11.307556 12.368072 1.6071932
-10.798082 11.431484 1.5081292
-10.581881 10.84346 1.4530865
-12.124106 12.025829 1.6377624
-11.941283 11.464969 1.587644
-10.810735 10.046501 1.4154009
-12.255217 11.022613 1.5808178
-12.299265 10.705265 1.5638129
-11.843002 9.9740152 1.4849591
-12.561794 10.234561 1.5539898
-12.840715 10.118568 1.5679094
-12.407608 9.4540148 1.4960345
-12.047614 8.8735256 1.4350213
-13.169056 9.3727484 1.5502193
-13.319871 9.1571541 1.5502193
-12.747886 8.4617014 1.4674232
-13.427317 8.6011629 1.5293128
-12.850438 7.9396429 1.4486959
-13.154904 7.8348041 1.4684466
-13.891393 7.9700294 1.5359724
-13.943712 7.7011271 1.5276929
-13.466338 7.1539321 1.462438
-13.252681 6.7661705 1.4270838
-14.318175 7.0187373 1.5293128
-14.326899 6.7360306 1.5183311
-13.822926 6.226398 1.4539865
-14.524169 6.2599225 1.5168278
-14.698158 6.0531683 1.5245054
-14.026179 5.5111442 1.4453101
-14.050989 5.2585192 1.4388549
-14.88608 5.2964478 1.5153402
-14.37316 4.8518667 1.4548942
-14.290926 4.5663705 1.4388549
-15.456559 4.66295 1.5483667
-14.83667 4.2137194 1.4792014
-14.201249 3.784574 1.4095215
-15.175852 3.7808495 1.4999464
-15.11958 3.5064757 1.4885455
-14.733898 3.1652248 1.4453101
-15.397554 3.0464826 1.5053465
-15.28522 2.7665162 1.4897639
-15.162974 2.4902134 1.4737028
-14.842037 2.1900356 1.4388549
-14.790481 1.9369993 1.4306104
-15.335125 1.7549435 1.4803317
-14.620973 1.432531 1.4089552
-15.432211 1.2587838 1.4849591
-15.539416 1.0132149 1.4934897
-14.929387 0.72962749 1.4335285
-15.303179 0.49837664 1.4684466
-15.561684 0.2533305 1.7074953
-14.957608 0.48712251 1.6418662
-15.493275 0.75718576 1.7017927
-15.088538 0.98381639 1.6588756
-15.271629 1.2456853 1.6810119
-14.753097 1.4454762 1.6263095
-15.398575 1.7622048 1.7004009
-15.248365 1.9969651 1.6871802
-14.751201 2.1766322 1.6358745
-15.221526 2.4998295 1.6923213
-15.2891 2.7672184 1.7046165
-14.673111 2.9031479 1.6409904
-15.178283 3.2606902 1.7031978
-14.46796 3.3553543 1.6294039
-14.357474 3.5769622 1.6233037
-14.169967 3.7762375 1.6088407
-14.909442 4.2343869 1.7004009
-14.734234 4.4450383 1.6884478
-14.247882 4.5526166 1.6409904
-14.758854 4.9820633 1.7089559
-14.701262 5.23069 1.7119203
-14.046638 5.2568908 1.6454383
-14.402211 5.6588941 1.6976569
-14.343052 5.9069242 1.7017927
-13.804141 5.9495907 1.6491246
-13.509547 6.0852399 1.6255499
-13.970336 6.568387 1.6936365
-13.273894 6.5068331 1.6218328
-13.000798 6.6375709 1.6014553
-14.018166 7.4470878 1.7414788
-13.852662 7.6508403 1.736161
-13.22556 7.5880151 1.6728259
-13.652116 8.1309338 1.7432896
-13.435912 8.3013773 1.7327086
-12.796807 8.1972771 1.6672772
-12.77519 8.479825 1.6822234
-13.30118 9.1443043 1.7708524
-12.959484 9.2235909 1.74512
-12.364055 9.106596 1.6846794
-12.838957 9.7826824 1.7708524
-11.90592 9.3819427 1.6630058
-11.958791 9.7432709 1.6923213
-12.438363 10.47542 1.7840828
-12.363933 10.761551 1.7982966
-11.46893 10.315409 1.6923213
-11.912192 11.070094 1.7840828
-11.873257 11.399655 1.8058059
-11.669731 11.575138 1.8032715
-10.528872 10.789142 1.6539011
-11.35145 12.017312 1.8136035
-11.106382 12.14803 1.8058059
-10.425243 11.78252 1.726016
-10.866374 12.691483 1.8330134
-9.5120592 11.482874 1.6358745
-9.3334646 11.648125 1.6375538
-10.217807 13.186008 1.8301305
-10.04973 13.414521 1.8388962
-9.7090988 13.409274 1.8162696
-8.672534 12.397589 1.6598953
-9.5996008 14.209807 1.8813581
-9.498456 14.565707 1.9077537
-8.595603 13.662186 1.7708524
-8.9642248 14.776351 1.8961011
-8.9319124 15.278476 1.9416182
-7.8456817 13.936216 1.7545779
-8.4496078 15.597542 1.946164
-8.1198692 15.589517 1.928414
-7.0395627 14.069756 1.726016
-6.3112555 13.144531 1.5996977
-6.7651534 14.698343 1.7751595
-6.2553363 14.194564 1.7017927
-5.6967349 13.519132 1.6094832
-5.6172237 13.961243 1.6510122
-5.3651633 13.98807 1.6436384
-4.9853005 13.658557 1.5951722
-4.848525 13.986567 1.624047
-4.5787916 13.937517 1.6094832
-4.3712301 14.074291 1.6168461
-4.0079169 13.687166 1.5646707
-3.9158981 14.227633 1.6189532
-3.680589 14.277045 1.6175436
-3.3639269 13.986687 1.5782334
-3.1254499 13.993157 1.573014
-2.9574585 14.333894 1.6056923
-2.6655002 14.072577 1.5713505
-2.5166318 14.58075 1.6233037
-2.2699022 14.561624 1.6168461
-2.0249581 14.541888 1.6107811
-1.7359798 14.148999 1.563924
-1.5493029 14.58833 1.6094832
-1.3127017 14.623399 1.6107811
-1.0465808 14.262313 1.5689228
-0.83435291 14.629145 1.6075687
-0.58284664 14.314689 1.5717629
-0.35151264 14.393645 1.5795947
-0.11825551 14.529451 1.594076
0.11959236 14.693704 1.6120968
0.35718283 14.625827 1.605075
0.59474629 14.606943 1.6038526
0.83501309 14.64072 1.6088407
1.0719404 14.607902 1.6069391
1.2721437 14.171586 1.5610136
1.5415752 14.515566 1.6014553
1.7816582 14.521298 1.605075
1.9840415 14.248053 1.5782334
2.1987832 14.105388 1.5661881
2.4274919 14.064296 1.5658057
2.682627 14.162999 1.581447
2.9692545 14.391066 1.6120968
3.1941073 14.300549 1.6075687
3.4224541 14.230034 1.6056923
3.5417616 13.738532 1.5565317
3.892992 14.144409 1.6094832
4.1194243 14.067967 1.6082026
4.2705193 13.750028 1.5795947
4.5900207 13.971699 1.6134304
4.7974501 13.839231 1.6069391
4.84374 13.270714 1.5498763
5.1265306 13.365907 1.5705324
5.4715734 13.599237 1.6082026
5.6922026 13.508375 1.6082026
5.7117786 12.961127 1.5539154
6.1216798 13.300298 1.6063136
6.4253693 13.382197 1.6286218
6.4819989 12.95537 1.5893081
6.8542809 13.159686 1.6278454
7.0743394 13.058867 1.6294039
6.9931631 12.421895 1.563924
7.4744525 12.785419 1.6247957
7.7339478 12.748401 1.6358745
7.8758278 12.518147 1.6225656
7.8761568 12.077941 1.5819168
8.2753763 12.249625 1.6218328
8.5256662 12.187638 1.6317853
8.5041866 11.745166 1.5908682
9.547348 12.743935 1.7469704
9.7535162 12.586844 1.7469704
9.1625605 11.434837 1.6075687
10.442291 12.605841 1.7958548
10.448543 12.203471 1.7625307
10.367632 11.717409 1.716478
10.190317 11.146049 1.6568613
10.506588 11.12289 1.6786212
10.649349 10.912597 1.6728259
10.319474 10.235826 1.5946224
10.962425 10.525154 1.6672772
11.208033 10.415713 1.6786212
11.109324 9.991971 1.639259
11.074697 9.6394014 1.6107811
11.7031 9.8561916 1.6786212
11.508658 9.3765316 1.6286218
12.017715 9.4700375 1.6786212
12.111949 9.2287369 1.6705776
12.420139 9.1479044 1.6923213
11.85006 8.4339867 1.5957254
12.599555 8.6619511 1.6774416
12.613434 8.3724556 1.6609235
12.243382 7.8427672 1.5951722
13.082872 8.083252 1.6871802
12.656483 7.5379539 1.6161535
12.569345 7.2115192 1.589825
13.600972 7.5118313 1.7046165
13.768243 7.3143172 1.7104309
13.897565 7.0954165 1.7119203
13.146877 6.4445696 1.6063136
14.121154 6.6392961 1.7119203
14.108811 6.3551722 1.6976569
13.445788 5.7951403 1.6063136
14.354895 5.9118013 1.7031978
14.461254 5.6820931 1.7046165
14.046638 5.2568908 1.6454383
14.675806 5.2216325 1.7089559
14.085489 4.7547593 1.6309856
14.263149 4.5574951 1.6427488
14.239769 4.2958679 1.6317853
16.374193 4.6503868 1.8674538
18.048258 4.8097863 2.0491772
15.209117 3.7891371 1.7195933
17.047853 3.9536736 1.9199556
15.940304 3.4243922 1.7887063
14.947678 2.9574723 1.6716969
15.481037 2.8019576 1.726016
15.509929 2.5471938 1.7243857
15.423499 2.2758338 1.7104309
14.141151 1.8519614 1.5646707
15.361475 1.757959 1.6963042
15.305285 1.4995785 1.6871802
14.49682 1.1824852 1.5957254
15.257408 0.99482715 1.6774416
15.480603 0.75656652 1.7004009
14.594867 0.47530913 1.6020489
15.497026 0.25227797 1.7004009
15.365629 0 1.898499
14.885217 0.24231823 1.8393854
15.404682 0.50168228 1.9043332
15.268809 0.74621576 1.888788
14.63372 0.95416093 1.8119074
14.690888 1.1983151 1.8211598
15.203403 1.4895962 1.8874499
15.301012 1.7510396 1.9028543
14.661174 1.9200649 1.8269283
15.212553 2.2447076 1.8999374
15.209108 2.4977901 1.9043332
14.734824 2.6668985 1.850139
15.337498 3.0346003 1.9317589
15.286072 3.2838459 1.9317589
14.52471 3.3685155 1.8422285
14.921173 3.7174001 1.8999374
15.924855 4.2439079 2.0362651
16.807741 4.7735176 2.1588075
15.970325 4.8179431 2.0610495
16.607653 5.3066325 2.1541631
15.907872 5.3699307 2.0744593
14.382244 5.1171837 1.8861237
14.873879 5.5664821 1.9622216
14.605681 5.7388411 1.9389079
14.524055 5.9814672 1.9407411
13.419193 5.7836776 1.8054483
14.308137 6.4449563 1.9389079
13.948099 6.5579314 1.9043332
13.40221 6.5697331 1.8441606
13.685194 6.9869905 1.898499
13.758297 7.3090339 1.9248916
13.122463 7.2475505 1.852195
13.586149 7.794899 1.9352971
13.56108 8.0767145 1.9501967
13.12231 8.1076183 1.905826
12.267523 7.8582315 1.8000213
12.692236 8.4247627 1.8822142
12.455626 8.5630026 1.8675506
11.977558 8.5247297 1.8164375
12.177901 8.9694872 1.8687164
11.579597 8.8231096 1.798708
11.630136 9.1646242 1.8294908
11.786348 9.6027765 1.8784058
11.519214 9.7013254 1.860755
11.103488 9.6644621 1.8187739
10.812294 9.7248154 1.7967694
11.100212 10.315515 1.8722731
10.937876 10.501585 1.8734788
10.433306 10.348734 1.8156694
10.167599 10.418938 1.798708
10.015088 10.602561 1.8020233
9.8911371 10.81881 1.8111702
10.054427 11.363427 1.8746948
9.9784975 11.654479 1.8956614
9.6855564 11.692317 1.8759211
9.5193253 11.880079 1.8809336
9.8361254 12.693452 1.9840976
9.6509132 12.882174 1.9887756
8.9527025 12.364613 1.8861237
9.3806896 13.409914 2.0220134
8.890274 13.159826 1.9622216
8.0202723 12.29894 1.8141491
7.9237657 12.594342 1.8384519
7.6837382 12.665636 1.8303574
7.369163 12.605315 1.8040648
7.2152071 12.816309 1.8172109
7.066494 13.044385 1.8329958
6.8242769 13.102081 1.8252506
6.4019251 12.79533 1.7677643
6.4244528 13.380288 1.8338883
6.0173192 13.073558 1.7781868
5.8325739 13.235235 1.7870259
5.7338986 13.607326 1.8244208
5.4922242 13.650564 1.8179897
5.1334062 13.383832 1.771102
4.9861064 13.660765 1.7967694
4.7935796 13.828067 1.8082709
4.5660653 13.89878 1.8075582
4.2107034 13.557434 1.7540187
4.1194615 14.068094 1.8111702
3.7927318 13.780133 1.7659143
3.5895615 13.923948 1.7766203
3.4183285 14.212881 1.806147
3.189023 14.277785 1.8075582
2.9143212 14.124821 1.7819506
2.7236705 14.379689 1.8082709
2.4788082 14.361609 1.8006842
2.2515261 14.443738 1.806147
1.9523983 14.020812 1.749055
1.7829956 14.532198 1.8089885
1.5426002 14.525216 1.8047543
1.2550601 13.981276 1.7344013
1.0654113 14.518927 1.798708
0.83141482 14.57763 1.8040648
0.58381903 14.338571 1.7730688
0.35334158 14.468536 1.7881918
0.11844081 14.552218 1.7980577
-0.11945122 14.676363 1.8133968
-0.34658906 14.192037 1.7540187
-0.59448069 14.60042 1.8054483
-0.83335328 14.611617 1.8082709
-1.0523283 14.340637 1.7766203
-1.3085142 14.57675 1.8082709
-1.5101883 14.220025 1.7668343
-1.7510926 14.272174 1.7766203
-2.0225577 14.52465 1.8119074
-2.2559688 14.472239 1.8097109
-2.4844108 14.39407 1.8047543
-2.646807 13.973886 1.7572407
-2.9745445 14.416704 1.8187739
-3.194104 14.300533 1.810438
-3.3704691 14.013888 1.7808594
-3.6520696 14.166418 1.8075582
-3.8979547 14.16244 1.8149067
-3.9598968 13.523176 1.7410158
-4.2459583 13.670947 1.7687047
-4.5846281 13.955284 1.8149067
-4.7296968 13.643784 1.7841725
-4.8917637 13.402287 1.7627724
-5.2808332 13.768205 1.8219664
-5.516685 13.71136 1.8260864
-5.6390495 13.382236 1.7942415
-6.0065365 13.629991 1.840326
-6.2505693 13.58033 1.8471149
-6.3742709 13.275773 1.8195636
-7.0486894 14.087997 1.9463553
-7.8794751 15.127979 2.1074784
-7.5567455 13.949365 1.9601635
-7.4197087 13.179564 1.8687164
-8.8182001 15.083964 2.1588075
-8.9863443 14.812813 2.1406536
-8.6134138 13.690495 1.9984622
-9.5648489 14.667519 2.1635253
-9.7391882 14.416432 2.1495903
-9.09375 12.999726 1.9601635
-9.8798056 13.64504 2.0814426
-10.345866 13.809807 2.1319854
-9.7589598 12.59387 1.9685321
-9.6010094 11.98202 1.8970737
-9.7947683 11.824158 1.8970737
-10.956424 12.796657 2.0814426
-10.369916 11.71999 1.9335191
-11.255774 12.311433 2.0610495
-10.952442 11.594898 1.970682
-10.790222 11.056952 1.9088538
-11.634984 11.540672 2.0247931
-12.014038 11.534821 2.0578077
-11.412173 10.605423 1.9248916
-11.342084 10.20132 1.884809
-12.294579 10.701185 2.0138769
-12.341374 10.393738 1.9935626
-11.18458 9.1124935 1.7825011
-12.720144 10.023557 2.0009556
-12.818521 9.7671108 1.9911553
-12.344374 9.0921001 1.8942617
-12.952576 9.2186737 1.9643022
-13.033001 8.9599361 1.9541199
-12.700947 8.4305449 1.8835059
-12.71987 8.1479921 1.8663944
-13.337597 8.240634 1.9370933
-13.56108 8.0767145 1.9501967
-12.813602 7.3516588 1.8252506
-14.008646 7.73699 1.9772769
-13.981454 7.4275846 1.956113
-13.487528 6.8860717 1.8710775
-13.445658 6.5910311 1.850139
-13.458772 6.3278666 1.8375255
-13.781557 6.2077641 1.8675506
-13.743811 5.9235878 1.849123
-14.496757 5.9702249 1.9370933
-14.500098 5.6973553 1.9248916
-13.685518 5.1217432 1.8054483
-14.677861 5.2223639 1.9248916
-14.722768 4.969882 1.9199163
-14.117984 4.5111103 1.8312304
-14.902309 4.4957438 1.9232168
-14.922613 4.2381277 1.9166793
-14.477242 3.858125 1.8511629
-14.570933 3.6301427 1.8553407
-15.163247 3.5166025 1.9232168
-15.154122 3.2555001 1.915084
-14.340181 2.8372762 1.806147
-15.178326 2.747169 1.905826
-15.185595 2.4939284 1.9013891
-14.712829 2.1709702 1.8375255
-15.294331 2.0029848 1.905826
-15.254529 1.7457201 1.8970737
-14.376046 1.4085336 1.7847363
-14.473744 1.180603 1.7942415
-15.276546 0.99607503 1.8915004
-15.236643 0.74464369 1.884809
-14.54499 0.47368479 1.7980577
-15.225644 0.24786009 2.092994
-15.137921 0.49299473 2.0817626
-14.657784 0.71635371 2.0170705
-15.133714 0.98676193 2.0844979
-15.18784 1.2388508 2.0944538
-14.717267 1.4419657 2.0325279
-15.171692 1.7362404 2.0989115
-15.231551 1.994763 2.1114054
-15.129012 2.2323806 2.1019506
-14.12765 2.3201823 1.9678133
-15.05936 2.725637 2.1034908
-15.190669 3.0055494 2.1283844
-14.559255 3.1277068 2.0467789
-15.059801 3.4926119 2.1248586
-15.185884 3.7833493 2.1510532
-14.316602 3.815315 2.0364487
-15.026914 4.2677503 2.1470842
-14.588861 4.4011822 2.0944538
-14.750441 4.7131991 2.1283844
-14.038023 4.7387366 2.0364487
-13.932155 4.9570427 2.0325279
-14.455194 5.409791 2.1213996
-13.852689 5.4429765 2.0457103
-14.431089 5.943181 2.1451297
-14.385481 6.2001481 2.1530681
-13.628754 6.1389356 2.0544944
-14.136647 6.6465807 2.1470842
-14.026588 6.875802 2.1470842
-13.405264 6.8440714 2.0687571
-13.873445 7.3702054 2.1592386
-13.862668 7.6563663 2.1766715
-13.639446 7.8254776 2.1613383
-12.277136 7.3120222 1.9640654
-12.781599 7.8971109 2.0650611
-13.280604 8.5071831 2.1677709
-12.627274 8.3816423 2.0831244
-13.03647 8.9623213 2.1744106
-13.029708 9.2735701 2.1981716
-12.235689 9.0120497 2.0886905
-12.735561 9.7039003 2.200696
-12.519179 9.8651953 2.1907661
-12.580923 10.250146 2.2304752
-11.402191 9.6027699 2.0489407
-12.163729 10.587294 2.2164643
-12.659441 11.38618 2.3402581
-11.102035 10.317208 2.0831244
-11.646785 11.182217 2.2192006
-11.536467 11.442953 2.2333789
-10.745499 11.011123 2.1146746
-11.143383 11.797039 2.2304752
-11.149649 12.195354 2.2711663
-10.901517 12.320801 2.261179
-9.7488632 11.386275 2.0602708
-10.572971 12.763597 2.2780426
-10.363818 12.934003 2.2780426
-9.5949802 12.382256 2.1530681
-9.7947321 13.074145 2.2453532
-9.8455534 13.597733 2.3074424
-8.5775509 12.261808 2.0567775
-9.6230602 14.244534 2.362767
-9.3354712 14.315772 2.3490639
-9.1543074 14.550213 2.362767
-7.9205632 13.056012 2.0989115
-8.6758528 14.840472 2.362767
-8.4842949 15.07058 2.3770976
-7.6811905 14.179083 2.2164643
-8.2465229 15.832683 2.4536436
-7.874032 15.737584 2.4187205
-6.7802591 14.121331 2.1530681
-6.9844389 15.174775 2.296046
-6.2768679 14.243423 2.1393819
-5.8274035 13.829226 2.0626466
-5.3943572 13.407322 1.9863582
-5.2907095 13.793953 2.0306101
-5.0360088 13.797485 2.0187941
-4.7430105 13.68219 1.9903635
-4.6004543 14.003457 2.0259356
-4.3602719 14.039008 2.0205419
-4.0559959 13.851357 1.9837689
-3.9096439 14.20491 2.0250206
-3.6762631 14.260265 2.0241122
-3.4331434 14.274479 2.0179293
-3.1910031 14.286651 2.0120399
-2.8882804 13.998609 1.9645919
-2.740633 14.469244 2.0241122
-2.4193118 14.016901 1.9550651
-2.2642117 14.525118 2.0205419
-2.0222979 14.522783 2.0153706
-1.7454638 14.226298 1.9700222
-1.544082 14.53917 2.0096009
-1.3072239 14.562377 2.0096009
-1.0679123 14.553009 2.0056434
-0.83121556 14.574137 2.0064242
-0.594823 14.608828 2.0096009
-0.35653228 14.599188 2.0072105
-0.11546551 14.186659 1.9499761
0.11894863 14.614612 2.0087986
0.35639262 14.59347 2.0064242
0.58165747 14.285482 1.9651213
0.83253157 14.59721 2.0096009
1.0642904 14.503652 1.998841
1.3072239 14.562377 2.0096009
1.5428535 14.527602 2.0080018
1.7770246 14.483532 2.0056434
2.0149038 14.469685 2.0080018
2.1897771 14.047613 1.9541178
2.4971037 14.467608 2.0179293
2.6537666 14.010631 1.9599564
2.8979156 14.045308 1.9711457
3.1949513 14.304327 2.0145295
3.4231236 14.232819 2.0120399
3.5831687 13.899151 1.9728553
3.8814325 14.10241 2.0104084
4.1071715 14.026125 2.0087986
4.3281207 13.93549 2.0056434
4.421936 13.460061 1.9473202
4.6778545 13.494233 1.9630212
4.9567351 13.580294 1.9870155
5.1462913 13.417426 1.9751815
5.4618783 13.575141 2.0112214
5.670785 13.457548 2.0072105
5.7968411 13.15415 1.9757715
6.1358118 13.331001 2.0170705
6.3799043 13.287506 2.0259356
6.418818 12.829093 1.9717124
6.7304983 12.922033 2.0025706
7.0821176 13.073226 2.0435975
7.2510276 12.879937 2.0315654
7.2099371 12.332951 1.9635417
7.6417241 12.596382 2.0250206
7.9017124 12.55929 2.0394666
7.9321246 12.163766 1.995943
8.0591393 11.929539 1.9787744
8.6223297 12.325822 2.0675149
9.0160313 12.452077 2.1130323
9.5780258 12.784883 2.1956754
9.9271526 12.810921 2.2276061
10.071368 12.569025 2.2137597
9.5249977 11.498492 2.052247
10.513994 12.279917 2.2219694
9.9859457 11.28603 2.0712721
9.881587 10.808363 2.0128641
10.335444 10.941709 2.0687571
10.578259 10.839748 2.0817626
10.428034 10.343506 2.0187941
10.87711 10.443243 2.0725453
10.980236 10.204021 2.0602708
11.077713 9.9635391 2.0478556
10.823682 9.4209194 1.9722822
11.327159 9.5395794 2.0354576
11.45898 9.3360567 2.0315654
11.270649 8.8813448 1.9722822
11.964835 9.116643 2.0675149
12.211128 8.9939604 2.0844979
11.941165 8.498827 2.0145295
11.893497 8.176549 1.9837689
12.338332 8.1898508 2.0354576
12.373251 7.9259582 2.019665
12.41867 7.6728749 2.0064242
12.871167 7.6658158 2.0590971
13.145866 7.5422916 2.0831244
12.768492 7.0520515 2.0048676
13.733795 7.2960172 2.1375039
13.222082 6.7505479 2.0404878
13.498726 6.6170449 2.066283
14.037191 6.5998201 2.1319788
14.269289 6.4274578 2.1510532
14.558455 6.2747002 2.178957
14.498189 5.9708147 2.1551039
14.851474 5.8354173 2.193207
14.786088 5.5336266 2.1699605
13.539068 4.817183 1.9751815
15.375521 5.190228 2.2304752
15.418433 4.9266419 2.2247708
14.684582 4.4300594 2.108196
16.706175 4.7446723 2.3870213
16.422148 4.3764343 2.3359499
14.170392 3.5303533 2.0072105
16.195509 3.756001 2.2851009
15.747032 3.3828723 2.2137597
15.584776 3.0835254 2.183603
14.510721 2.6263375 2.0268571
15.29329 2.5116153 2.130173
15.118027 2.2307596 2.1004243
14.383279 1.8836712 1.9938176
15.384731 1.7606205 2.1283844
