# .PCD v0.7 - Point Cloud Data file format
VERSION 0.7
FIELDS x y z
SIZE 4 4 4
TYPE F F F
COUNT 1 1 1
WIDTH 1581
HEIGHT 1
VIEWPOINT 0 0 0 1 0 0 0
POINTS 1581
DATA ascii
8.4198513 9.8340435 2.323292
8.2586679 9.9697905 2.323292
8.0952959 10.102896 2.323292
7.9297791 10.233324 2.323292
7.7621608 10.361041 2.323292
7.5924864 10.486012 2.323292
7.4208002 10.608207 2.323292
7.2471476 10.727589 2.323292
7.0715747 10.84413 2.323292
6.8941283 10.957797 2.323292
6.7148557 11.068561 2.323292
9.03897 15.461602 3.2140799
8.2617989 14.675362 3.0222816
8.0137262 14.792928 3.019227
7.8525152 15.076219 3.0505519
7.4192619 14.82865 2.9756253
7.0703449 14.725495 2.9314406
6.8258252 14.830163 2.9297681
6.5725193 14.914314 2.9248679
6.412436 15.217588 2.9634788
6.1134486 15.194577 2.9392273
5.8464413 15.242859 2.9297681
5.5718346 15.265522 2.9163039
5.2553453 15.160125 2.8794434
5.0445881 15.355369 2.9005451
4.7512078 15.297727 2.8746657
4.5176945 15.428074 2.8849578
4.2596121 15.47645 2.8806555
3.996352 15.501894 2.8729014
3.7264245 15.493896 2.859798
3.4812438 15.586107 2.865978
3.2277293 15.643813 2.8665473
2.9841702 15.755005 2.8776391
2.7421026 15.887073 2.8932245
2.4771216 15.890954 2.8862052
2.2004189 15.801929 2.8631506
1.941022 15.820184 2.8603539
1.6829332 15.846601 2.859798
1.4140911 15.752869 2.838352
1.1680677 15.91788 2.8642778
0.91537982 16.049831 2.8849578
0.6537351 16.055706 2.8837187
0.39052168 15.990977 2.8705707
0.12917824 15.871472 2.8483634
-0.13013294 15.98877 2.8694141
-0.39299154 16.092112 2.8887258
-0.66552204 16.345192 2.9357123
-0.92253393 16.175268 2.907505
-1.1831359 16.123222 2.9012275
-1.4318893 15.951139 2.8740761
-1.7014611 16.021061 2.8912821
-1.9471704 15.870295 2.8694141
-2.1995564 15.795735 2.8620284
-2.5062404 16.077753 2.9201329
-2.7483971 15.923542 2.8998659
-3.0122159 15.903073 2.9046836
-3.2722518 15.8596 2.9060879
-3.5378428 15.839509 2.9125736
-3.8000536 15.800035 2.9163039
-4.0653191 15.769417 2.9224806
-4.3759108 15.898997 2.959305
-4.5378757 15.496992 2.8978453
-4.8187809 15.515295 2.91555
-5.122951 15.593901 2.9456024
-5.3900824 15.548801 2.9532671
-5.7104611 15.645328 2.9888613
-5.8431435 15.234261 2.9281156
-6.1705728 15.336555 2.9666915
-6.4619622 15.33512 2.986367
-6.6569118 15.105817 2.9624238
-7.04497 15.306289 3.0238292
-7.2894444 15.181817 3.0222816
-8.100997 16.191212 3.249047
-5.980454 11.482007 2.323292
-6.166554 11.383142 2.323292
-6.3510203 11.281261 2.323292
-6.5338035 11.176392 2.323292
-6.7148557 11.068561 2.323292
-6.8941283 10.957797 2.323292
-7.0715747 10.84413 2.323292
-7.2471476 10.727589 2.323292
-7.4208002 10.608207 2.323292
-7.5924864 10.486012 2.323292
-7.7621608 10.361041 2.323292
-7.9297791 10.233324 2.323292
-8.0952959 10.102896 2.323292
-8.2586679 9.9697905 2.323292
-8.4198513 9.8340435 2.323292
-8.578805 9.6956911 2.323292
-8.7354841 9.5547695 2.323292
-8.8898497 9.4113169 2.323292
-9.0418596 9.2653704 2.323292
-9.191474 9.1169691 2.323292
-9.3386526 8.9661522 2.323292
-9.4833574 8.8129587 2.323292
-9.6255493 8.6574316 2.323292
-9.7651911 8.4996099 2.323292
-9.9022446 8.3395357 2.323292
-10.036675 8.1772528 2.323292
-10.168447 8.0128031 2.323292
-10.297523 7.8462296 2.323292
-10.423872 7.677578 2.323292
-10.547459 7.5068917 2.323292
-10.668251 7.3342166 2.323292
-10.786217 7.1595984 2.323292
-10.901324 6.9830828 2.323292
-11.013543 6.8047175 2.323292
-11.122845 6.6245489 2.323292
-11.229198 6.442625 2.323292
-11.332577 6.2589946 2.323292
-11.432953 6.0737052 2.323292
-11.5303 5.886807 2.323292
-11.624592 5.6983485 2.323292
-11.715804 5.5083809 2.323292
-11.803911 5.3169532 2.323292
-11.888891 5.1241169 2.323292
-11.970721 4.9299231 2.323292
-12.049379 4.7344232 2.323292
-12.124846 4.5376687 2.323292
-12.197099 4.3397117 2.323292
-12.26612 4.140605 2.323292
-12.331892 3.9404013 2.323292
-12.394396 3.7391536 2.323292
-12.453616 3.5369151 2.323292
-12.509536 3.3337395 2.323292
-12.562142 3.1296806 2.323292
-12.61142 2.9247925 2.323292
-12.657355 2.7191293 2.323292
-12.699938 2.5127459 2.323292
-12.739156 2.3056965 2.323292
-12.774998 2.0980363 2.323292
-12.807455 1.8898202 2.323292
-12.836518 1.6811033 2.323292
-12.862181 1.4719411 2.323292
-12.884436 1.2623889 2.323292
-12.903276 1.0525022 2.323292
-12.918699 0.8423366 2.323292
-12.930698 0.63194782 2.323292
-12.939271 0.42139158 2.323292
-12.91148 0.21018752 2.4999022
-12.906348 0.42031938 2.4999022
-12.897797 0.63033986 2.4999022
-12.885828 0.84019327 2.4999022
-12.870445 1.0498241 2.4999022
-12.851652 1.2591769 2.4999022
-12.829454 1.4681959 2.4999022
-12.803857 1.6768259 2.4999022
-12.774867 1.8850117 2.4999022
-12.742492 2.0926981 2.4999022
-12.706741 2.2998297 2.4999022
-12.667624 2.5063524 2.4999022
-12.62515 2.7122107 2.4999022
-12.57933 2.9173505 2.4999022
-12.530178 3.1217172 2.4999022
-12.477706 3.3252571 2.4999022
-12.421928 3.5279157 2.4999022
-12.362859 3.7296395 2.4999022
-12.300514 3.9303753 2.4999022
-12.23491 4.1300697 2.4999022
-12.166064 4.3286695 2.4999022
-12.093994 4.5261226 2.4999022
-12.018721 4.7223768 2.4999022
-11.940263 4.9173794 2.4999022
-11.858641 5.1110792 2.4999022
-11.773877 5.3034248 2.4999022
-11.685993 5.4943652 2.4999022
-11.595014 5.6838498 2.4999022
-11.500962 5.8718281 2.4999022
-11.403863 6.0582509 2.4999022
-11.303742 6.2430687 2.4999022
-11.200626 6.4262323 2.4999022
-11.094543 6.6076932 2.4999022
-10.98552 6.7874031 2.4999022
-10.873587 6.9653149 2.4999022
-10.758772 7.1413813 2.4999022
-10.641107 7.3155551 2.4999022
-10.520621 7.4877911 2.4999022
-10.397349 7.6580429 2.4999022
-10.271322 7.8262653 2.4999022
-10.142573 7.9924145 2.4999022
-10.011138 8.1564465 2.4999022
-9.8770494 8.3183165 2.4999022
-9.740344 8.4779825 2.4999022
-9.601058 8.6354027 2.4999022
-9.4592276 8.790535 2.4999022
-9.3148909 8.9433374 2.4999022
-9.168087 9.093771 2.4999022
-9.0188532 9.2417946 2.4999022
-8.8672304 9.3873701 2.4999022
-8.7132578 9.5304585 2.4999022
-8.5569763 9.6710215 2.4999022
-8.398428 9.809021 2.4999022
-8.2376537 9.9444227 2.4999022
-8.0746975 10.077189 2.4999022
-7.9096022 10.207286 2.4999022
-7.7424107 10.334678 2.4999022
-7.5731678 10.459332 2.4999022
-7.4019179 10.581214 2.4999022
-7.2287073 10.700294 2.4999022
-7.0535817 10.816537 2.4999022
-6.8765869 10.929915 2.4999022
-6.6977701 11.040397 2.4999022
-6.5171785 11.147954 2.4999022
-6.3348603 11.252557 2.4999022
-6.1508636 11.354178 2.4999022
-5.9652371 11.452791 2.4999022
-5.7780304 11.54837 2.4999022
-5.5892925 11.640889 2.4999022
-5.3990736 11.730324 2.4999022
-6.8217158 15.479789 3.2748671
-6.7333174 15.979083 3.3568623
-6.2766519 15.600208 3.255372
-6.1293588 15.980483 3.3134651
-5.8568311 16.046347 3.3069143
-5.5192885 15.921523 3.2622414
-5.2053351 15.844672 3.2287047
-4.9074645 15.800834 3.203068
-4.6407347 15.84826 3.196944
-4.4317641 16.101929 3.2331331
-4.1368623 16.046934 3.208143
-3.8846891 16.151936 3.2160664
-3.5829864 16.041624 3.1820664
-3.3716111 16.341164 3.2301683
-3.0339797 16.017975 3.1561024
-2.7506595 15.936648 3.1308403
-2.5018733 16.049738 3.1446395
-2.2446206 16.119356 3.150703
-1.9888698 16.210163 3.1617048
-1.7340961 16.328352 3.1788299
-1.4380857 16.020166 3.1138613
-1.1847408 16.145092 3.1339796
-0.90923506 15.942092 3.0912917
-0.65793675 16.158899 3.1308403
-0.39164957 16.037161 3.1056066
-0.13102762 16.098696 3.1166966
0.13039322 16.02075 3.1016064
0.39378101 16.124439 3.122508
0.65572298 16.104528 3.1203058
0.92018658 16.134111 3.1285257
1.1655561 15.883654 3.0832305
1.4173386 15.789046 3.0689383
1.686687 15.881947 3.0919228
1.9283293 15.716733 3.0654638
2.1888711 15.719001 3.0724492
2.4686902 15.836865 3.102931
2.7104456 15.703659 3.0850685
2.9698663 15.679487 3.0894082
3.1890182 15.456193 3.0552356
3.4800658 15.580832 3.0906622
3.7309444 15.512689 3.0887835
3.9750025 15.419079 3.0826209
4.2578835 15.47017 3.106281
4.5130777 15.412307 3.1090026
4.7499967 15.293827 3.1002901
4.9807606 15.161083 3.0894082
5.2917657 15.265187 3.1277614
5.55337 15.214934 3.1355727
6.11306 15.193611 3.1705256
6.279954 14.90319 3.1308403
6.5649219 14.897075 3.1515894
6.8046169 14.784084 3.150703
7.0503368 14.683825 3.1533782
7.3011208 14.592524 3.1588771
7.5630693 14.520505 3.1695192
7.7109737 14.234062 3.1339796
7.966507 14.150836 3.1437926
8.2115011 14.046176 3.1498215
8.6543083 14.265494 3.2301683
9.1267834 14.506465 3.3179348
9.5250359 14.606467 3.3758252
7.2287073 10.700294 2.4999022
7.4019179 10.581214 2.4999022
7.5731678 10.459332 2.4999022
7.7424107 10.334678 2.4999022
7.9096022 10.207286 2.4999022
8.0746975 10.077189 2.4999022
8.2376537 9.9444227 2.4999022
8.398428 9.809021 2.4999022
8.5569763 9.6710215 2.4999022
8.7132578 9.5304585 2.4999022
8.8672304 9.3873701 2.4999022
9.0188532 9.2417946 2.4999022
9.168087 9.093771 2.4999022
9.3148909 8.9433374 2.4999022
9.4592276 8.790535 2.4999022
9.601058 8.6354027 2.4999022
9.740344 8.4779825 2.4999022
9.8770494 8.3183165 2.4999022
10.011138 8.1564465 2.4999022
10.142573 7.9924145 2.4999022
10.271322 7.8262653 2.4999022
10.397349 7.6580429 2.4999022
10.520621 7.4877911 2.4999022
10.641107 7.3155551 2.4999022
10.758772 7.1413813 2.4999022
10.873587 6.9653149 2.4999022
10.98552 6.7874031 2.4999022
11.094543 6.6076932 2.4999022
14.96064 8.583497 3.3391111
11.303742 6.2430687 2.4999022
11.403863 6.0582509 2.4999022
11.500962 5.8718281 2.4999022
11.595014 5.6838498 2.4999022
11.685993 5.4943652 2.4999022
11.773877 5.3034248 2.4999022
11.858641 5.1110792 2.4999022
15.754395 6.4881606 3.2984576
15.233216 5.9854112 3.1685195
14.700761 5.5016932 3.0387368
14.557014 5.1793666 2.9911983
14.426409 4.8698416 2.9476812
14.376481 4.593708 2.9218128
14.226814 4.2919593 2.8768139
14.229334 4.0412316 2.863641
14.306005 3.8124912 2.8662012
14.599533 3.6372678 2.9127603
15.156176 3.5149627 3.012001
16.201948 3.4806001 3.208143
16.557514 3.2759867 3.2675557
17.246826 3.1215529 3.3931108
17.045351 2.7993562 3.3440642
17.968464 2.6513596 3.5162327
12.803857 1.6768259 2.4999022
12.829454 1.4681959 2.4999022
12.851652 1.2591769 2.4999022
12.870445 1.0498241 2.4999022
12.885828 0.84019327 2.4999022
12.897797 0.63033986 2.4999022
12.906348 0.42031938 2.4999022
12.91148 0.21018752 2.4999022
12.877841 0 2.6760461
12.876135 0.20961213 2.6760461
12.871017 0.41916874 2.6760461
12.862489 0.62861431 2.6760461
12.850553 0.83789325 2.6760461
12.835212 1.0469502 2.6760461
12.816471 1.2557298 2.6760461
12.794333 1.4641767 2.6760461
12.768806 1.6722356 2.6760461
12.739896 1.8798515 2.6760461
12.707609 2.0869691 2.6760461
12.671956 2.293534 2.6760461
12.632946 2.4994912 2.6760461
12.590589 2.7047861 2.6760461
17.336903 4.0207086 3.6982653
12.495877 3.1131716 2.6760461
15.591889 4.1551738 3.3531122
14.670925 4.1666465 3.1692214
14.163673 4.2729111 3.0742636
13.961669 4.461163 3.0457776
13.938972 4.7053003 3.0571313
13.926566 4.9550538 3.0716946
13.977394 5.2309766 3.1012769
14.113527 5.545465 3.1510944
14.306049 5.8916855 3.2150664
14.644908 6.3119617 3.3138728
15.390312 6.9324117 3.507616
11.654003 5.4793243 2.6760461
11.563272 5.6682901 2.6760461
11.469478 5.8557539 2.6760461
11.372644 6.0416665 2.6760461
11.272798 6.2259784 2.6760461
11.169965 6.4086404 2.6760461
11.064172 6.5896044 2.6760461
10.955447 6.7688227 2.6760461
10.84382 6.9462471 2.6760461
10.72932 7.1218314 2.6760461
10.611976 7.2955289 2.6760461
10.491821 7.4672928 2.6760461
10.368886 7.6370788 2.6760461
10.243204 7.804841 2.6760461
10.114808 7.9705353 2.6760461
9.9837322 8.1341181 2.6760461
9.8500109 8.2955446 2.6760461
9.7136793 8.4547739 2.6760461
9.5747747 8.611763 2.6760461
9.4333324 8.7664709 2.6760461
9.2893915 8.9188557 2.6760461
9.1429892 9.0688772 2.6760461
8.9941645 9.2164955 2.6760461
8.8429556 9.3616724 2.6760461
8.6894045 9.5043688 2.6760461
8.5335512 9.6445465 2.6760461
8.3754368 9.7821693 2.6760461
8.2151031 9.9172001 2.6760461
7.8879495 10.179343 2.6760461
7.7212157 10.306387 2.6760461
7.5524359 10.430699 2.6760461
7.3816552 10.552248 2.6760461
7.208919 10.671001 2.6760461
7.0342722 10.786927 2.6760461
6.8577619 10.899994 2.6760461
6.6794348 11.010174 2.6760461
8.8062687 15.063556 3.625905
8.2309542 14.620571 3.4865606
7.8718405 14.531013 3.4341898
7.793057 14.962064 3.505615
7.4067674 14.803677 3.4397984
7.1308632 14.851538 3.4234924
6.8442783 14.870255 3.4016726
6.6171322 15.01555 3.409816
6.2566037 14.847776 3.3481443
6.0982733 15.15686 3.3950062
5.9562163 15.529065 3.4562001
5.5257211 15.139182 3.3489625
5.3427091 15.412144 3.3896558
5.03374 15.322349 3.3514402
4.7698145 15.357635 3.3417315
4.4651861 15.248755 3.3017859
4.2537222 15.45505 3.3310192
3.9704459 15.401403 3.305088
3.7377727 15.54108 3.3215644
3.4858131 15.606565 3.3229918
3.2320213 15.664615 3.323709
3.0188131 15.937902 3.370821
2.7163625 15.73794 3.3187375
2.4516995 15.727869 3.307759
2.2017298 15.811343 3.317337
1.9448981 15.851774 3.3187375
1.6727607 15.750816 3.2914634
1.409749 15.704497 3.2765543
1.1589681 15.793875 3.2908294
0.90036011 15.786484 3.2858002
0.64918655 15.943994 3.3159454
0.38677907 15.837727 3.2920988
0.13006398 15.980299 3.3208544
-0.12973683 15.940103 3.3125012
-0.39024094 15.979482 3.3215644
-0.66445255 16.318926 3.3939216
-0.91016012 15.958312 3.3215644
-1.1725999 15.979642 3.3295362
-1.4357845 15.994531 3.3370664
-1.6838003 15.854766 3.3131862
-1.9428557 15.835129 3.3152525
-2.2163627 15.916427 3.3393843
-2.4963794 16.014494 3.3680398
-2.7515509 15.941813 3.3617291
-3.0301356 15.997681 3.3834641
-3.2724702 15.860659 3.3653054
-3.5139186 15.732397 3.3497844
-3.8074286 15.830698 3.3834641
-4.0482917 15.703367 3.3698885
-4.3528275 15.81513 3.4086273
-4.5702372 15.607509 3.3794663
-4.8865156 15.733383 3.4234924
-5.0714273 15.437066 3.3765323
-5.3000894 15.289198 3.3626161
-5.624167 15.4089 3.4086273
-6.0054116 15.657327 3.4847465
-6.2405071 15.510372 3.47419
-6.5291224 15.4945 3.4939792
-6.6487417 15.087277 3.4261043
-7.1510539 15.536773 3.5541432
-7.4506583 15.517579 3.5770245
-5.7622128 11.516756 2.6760461
-5.9489074 11.421439 2.6760461
-6.1340256 11.323096 2.6760461
-6.3175187 11.221753 2.6760461
-6.4993377 11.117436 2.6760461
-6.6794348 11.010174 2.6760461
-6.8577619 10.899994 2.6760461
-7.0342722 10.786927 2.6760461
-7.208919 10.671001 2.6760461
-7.3816552 10.552248 2.6760461
-7.5524359 10.430699 2.6760461
-7.7212157 10.306387 2.6760461
-7.8879495 10.179343 2.6760461
-8.0525932 10.049603 2.6760461
-8.2151031 9.9172001 2.6760461
-8.3754368 9.7821693 2.6760461
-8.5335512 9.6445465 2.6760461
-8.6894045 9.5043688 2.6760461
-8.8429556 9.3616724 2.6760461
-8.9941645 9.2164955 2.6760461
-9.1429892 9.0688772 2.6760461
-9.2893915 8.9188557 2.6760461
-9.4333324 8.7664709 2.6760461
-9.5747747 8.611763 2.6760461
-9.7136793 8.4547739 2.6760461
-9.8500109 8.2955446 2.6760461
-9.9837322 8.1341181 2.6760461
-10.114808 7.9705353 2.6760461
-10.243204 7.804841 2.6760461
-10.368886 7.6370788 2.6760461
-10.491821 7.4672928 2.6760461
-10.611976 7.2955289 2.6760461
-10.72932 7.1218314 2.6760461
-10.84382 6.9462471 2.6760461
-10.955447 6.7688227 2.6760461
-11.064172 6.5896044 2.6760461
-11.169965 6.4086404 2.6760461
-11.272798 6.2259784 2.6760461
-11.372644 6.0416665 2.6760461
-11.469478 5.8557539 2.6760461
-11.563272 5.6682901 2.6760461
-11.654003 5.4793243 2.6760461
-11.741646 5.2889066 2.6760461
-11.826178 5.0970874 2.6760461
-11.907576 4.9039178 2.6760461
-11.98582 4.7094493 2.6760461
-12.060887 4.5137324 2.6760461
-12.132759 4.3168197 2.6760461
-12.201417 4.1187634 2.6760461
-12.266841 3.9196157 2.6760461
-12.329016 3.7194297 2.6760461
-12.387923 3.5182579 2.6760461
-12.443548 3.316154 2.6760461
-12.495877 3.1131716 2.6760461
-12.544894 2.9093642 2.6760461
-12.590589 2.7047861 2.6760461
-12.632946 2.4994912 2.6760461
-12.671956 2.293534 2.6760461
-12.707609 2.0869691 2.6760461
-12.739896 1.8798515 2.6760461
-12.768806 1.6722356 2.6760461
-12.794333 1.4641767 2.6760461
-12.816471 1.2557298 2.6760461
-12.835212 1.0469502 2.6760461
-12.850553 0.83789325 2.6760461
-12.862489 0.62861431 2.6760461
-12.871017 0.41916874 2.6760461
-12.838387 0.20899764 2.8516905
-12.833284 0.4179399 2.8516905
-12.824781 0.62677145 2.8516905
-12.812881 0.83543688 2.8516905
-12.797585 1.0438811 2.8516905
-12.778898 1.2520485 2.8516905
-12.756825 1.4598843 2.8516905
-12.731373 1.6673332 2.8516905
-12.702547 1.8743405 2.8516905
-12.670356 2.0808511 2.8516905
-12.634808 2.2868104 2.8516905
-12.595911 2.4921637 2.8516905
-12.553678 2.6968567 2.8516905
-12.508118 2.9008353 2.8516905
-12.459244 3.1040452 2.8516905
-12.407069 3.3064325 2.8516905
-12.351606 3.5079439 2.8516905
-12.292871 3.7085259 2.8516905
-12.23088 3.9081252 2.8516905
-12.165647 4.106689 2.8516905
-12.097191 4.3041649 2.8516905
-12.02553 4.5005002 2.8516905
-11.950682 4.6956429 2.8516905
-11.872668 4.8895416 2.8516905
-11.791508 5.0821447 2.8516905
-11.707224 5.2734017 2.8516905
-11.619838 5.4632611 2.8516905
-11.529373 5.6516728 2.8516905
-11.435854 5.8385873 2.8516905
-11.339305 6.0239549 2.8516905
-11.239751 6.2077265 2.8516905
-11.137218 6.389853 2.8516905
-11.031735 6.5702863 2.8516905
-10.92333 6.7489791 2.8516905
-10.81203 6.9258838 2.8516905
-10.697865 7.1009531 2.8516905
-10.580866 7.2741413 2.8516905
-10.461063 7.4454021 2.8516905
-10.33849 7.6146898 2.8516905
-10.213176 7.7819605 2.8516905
-10.085155 7.9471688 2.8516905
-9.954464 8.1102715 2.8516905
-9.8211346 8.2712259 2.8516905
-9.6852026 8.4299879 2.8516905
-9.5467052 8.5865173 2.8516905
-9.4056778 8.7407713 2.8516905
-9.2621593 8.8927088 2.8516905
-9.1161852 9.0422907 2.8516905
-8.9677973 9.189477 2.8516905
-8.8170319 9.3342276 2.8516905
-8.6639309 9.4765053 2.8516905
-8.5085344 9.6162729 2.8516905
-8.3508835 9.7534914 2.8516905
-8.19102 9.8881264 2.8516905
-8.028986 10.020142 2.8516905
-7.8648252 10.149502 2.8516905
-7.6985803 10.276173 2.8516905
-7.5302954 10.400121 2.8516905
-7.3600154 10.521314 2.8516905
-7.1877851 10.639718 2.8516905
-7.0136509 10.755304 2.8516905
-6.8376579 10.86804 2.8516905
-6.6598535 10.977897 2.8516905
-6.4802842 11.084845 2.8516905
-6.2989984 11.188855 2.8516905
-6.1160431 11.289902 2.8516905
-5.9314675 11.387957 2.8516905
-5.7453203 11.482994 2.8516905
-5.557651 11.574989 2.8516905
-5.3685093 11.663918 2.8516905
-7.0098548 15.906713 3.8605928
-6.6500998 15.781596 3.8034487
-6.1899934 15.384824 3.6830509
-5.9667344 15.556488 3.700403
-5.7480955 15.748436 3.7233098
-5.4149528 15.620545 3.6717458
-5.1367798 15.635994 3.655237
-4.8953962 15.761977 3.6655724
-4.6269364 15.801138 3.6566784
-4.3606505 15.843554 3.6495826
-4.0930152 15.876852 3.641422
-3.8080003 15.833076 3.6166847
-3.5509157 15.898039 3.6178403
-3.2804828 15.899492 3.6055405
-3.0091305 15.886784 3.5910742
-2.7378302 15.862319 3.5749958
-2.4857116 15.946059 3.5842743
-2.2038379 15.826482 3.548862
-1.9530935 15.918571 3.5619102
-1.6875242 15.88983 3.548862
-1.4349399 15.985122 3.5644553
-1.1696831 15.939894 3.5496535
-0.90595663 15.884611 3.5335903
-0.64464778 15.832521 3.519202
-0.38852006 15.909016 3.5343306
-0.13059083 16.045031 3.5636032
0.13019679 15.996616 3.5528505
0.38909692 15.932636 3.5395782
0.64964902 15.955352 3.5465043
0.90710449 15.904737 3.5380671
1.1578168 15.778186 3.5136428
1.4153188 15.766546 3.5157158
1.6634126 15.662794 3.4981554
1.985689 16.184238 3.6213553
2.1576087 15.494496 3.4744189
2.4541898 15.743845 3.5388215
2.6913724 15.593154 3.5143323
2.9603434 15.62921 3.5328519
3.1981261 15.500335 3.5150232
3.4704111 15.537606 3.5358183
3.7236431 15.482331 3.5365655
3.9636176 15.374916 3.5263009
4.2090816 15.292858 3.5227294
4.4885197 15.328441 3.5472872
4.7342992 15.243285 3.5449464
5.0044441 15.233173 3.561069
5.2431946 15.125073 3.5552809
5.4417367 14.909084 3.5248668
5.7904468 15.09687 3.5910742
5.9906731 14.889426 3.5644553
6.3884597 15.160688 3.6538067
6.6143188 15.009165 3.6427562
6.7938352 14.760659 3.6088076
7.004477 14.588311 3.5940726
7.3258438 14.641937 3.6361837
7.5398221 14.475872 3.6249442
7.9135747 14.608052 3.6898148
8.1697063 14.511778 3.6986001
8.4007702 14.36993 3.6968129
8.5750151 14.134789 3.6717458
9.005044 14.312968 3.7556133
7.0136509 10.755304 2.8516905
7.1877851 10.639718 2.8516905
7.3600154 10.521314 2.8516905
7.5302954 10.400121 2.8516905
7.6985803 10.276173 2.8516905
7.8648252 10.149502 2.8516905
8.028986 10.020142 2.8516905
8.19102 9.8881264 2.8516905
8.3508835 9.7534914 2.8516905
8.5085344 9.6162729 2.8516905
8.6639309 9.4765053 2.8516905
8.8170319 9.3342276 2.8516905
8.9677973 9.189477 2.8516905
9.1161852 9.0422907 2.8516905
9.2621593 8.8927088 2.8516905
9.4056778 8.7407713 2.8516905
9.5467052 8.5865173 2.8516905
9.6852026 8.4299879 2.8516905
9.8211346 8.2712259 2.8516905
9.954464 8.1102715 2.8516905
10.085155 7.9471688 2.8516905
10.213176 7.7819605 2.8516905
10.33849 7.6146898 2.8516905
10.461063 7.4454021 2.8516905
10.580866 7.2741413 2.8516905
10.697865 7.1009531 2.8516905
10.81203 6.9258838 2.8516905
10.92333 6.7489791 2.8516905
11.031735 6.5702863 2.8516905
11.137218 6.389853 2.8516905
11.239751 6.2077265 2.8516905
11.339305 6.0239549 2.8516905
11.435854 5.8385873 2.8516905
11.529373 5.6516728 2.8516905
11.619838 5.4632611 2.8516905
11.707224 5.2734017 2.8516905
15.293409 6.591466 3.6986001
14.631496 6.0257149 3.5143323
14.420757 5.6661811 3.4411039
14.421598 5.3972178 3.4198856
14.190879 5.0490961 3.3452392
14.139418 4.7729635 3.3143528
13.864615 4.4301519 3.2326043
13.889643 4.1902413 3.2221084
13.839596 3.9305434 3.1952317
14.128866 3.7652843 3.2474356
14.541594 3.6228333 3.3283019
15.742569 3.6509566 3.5891039
16.163715 3.4723866 3.6717458
16.651291 3.2945409 3.7698212
16.939749 3.065974 3.8233206
17.212534 2.8268125 3.8739891
12.702547 1.8743405 2.8516905
12.731373 1.6673332 2.8516905
12.756825 1.4598843 2.8516905
12.778898 1.2520485 2.8516905
12.797585 1.0438811 2.8516905
12.812881 0.83543688 2.8516905
12.824781 0.62677145 2.8516905
12.833284 0.4179399 2.8516905
12.838387 0.20899764 2.8516905
12.79994 0 3.0268033
12.798244 0.20834415 3.0268033
12.793158 0.4166331 3.0268033
12.784681 0.62481165 3.0268033
12.772818 0.83282465 3.0268033
12.757569 1.040617 3.0268033
12.738941 1.2481337 3.0268033
12.716938 1.4553196 3.0268033
12.691565 1.6621199 3.0268033
12.662829 1.8684798 3.0268033
12.630738 2.0743446 3.0268033
12.595302 2.27966 3.0268033
12.556527 2.4843712 3.0268033
12.514425 2.6884243 3.0268033
12.469007 2.8917649 3.0268033
16.565584 4.1270819 4.0370054
15.706444 4.1857023 3.8437304
14.627552 4.1543283 3.5957744
14.069743 4.2445741 3.4751782
13.72993 4.3871155 3.4084339
13.731933 4.6354113 3.4272099
13.739256 4.8884091 3.448442
13.918279 5.2088528 3.5141926
13.852039 5.4427214 3.5193729
13.854665 5.705791 3.5431697
14.042266 6.0522223 3.615864
14.393846 6.4835634 3.733079
15.668361 7.3667417 4.0941877
11.493323 5.6340013 3.0268033
11.400097 5.8203316 3.0268033
11.303849 6.0051193 3.0268033
11.204606 6.1883159 3.0268033
11.102395 6.369873 3.0268033
10.997242 6.5497427 3.0268033
10.889175 6.7278767 3.0268033
10.778223 6.9042282 3.0268033
10.664415 7.0787501 3.0268033
10.547782 7.2513967 3.0268033
10.428354 7.422122 3.0268033
10.306163 7.5908804 3.0268033
10.181241 7.757628 3.0268033
10.053621 7.9223199 3.0268033
9.9233389 8.0849133 3.0268033
9.7904263 8.2453632 3.0268033
9.6549196 8.4036293 3.0268033
9.5168552 8.5596695 3.0268033
9.3762684 8.7134409 3.0268033
9.2331982 8.8649035 3.0268033
9.0876818 9.0140171 3.0268033
8.9397564 9.1607428 3.0268033
8.789463 9.3050413 3.0268033
8.6368408 9.4468746 3.0268033
8.4819307 9.5862045 3.0268033
8.3247719 9.7229948 3.0268033
8.1654091 9.8572092 3.0268033
8.0038815 9.9888105 3.0268033
7.8402338 10.117766 3.0268033
7.6745086 10.244041 3.0268033
7.5067496 10.367602 3.0268033
7.3370023 10.488416 3.0268033
7.1653109 10.60645 3.0268033
6.9917207 10.721675 3.0268033
6.816278 10.834058 3.0268033
6.6390295 10.943571 3.0268033
8.6349993 14.770591 4.0458755
8.3118057 14.764188 4.0065274
7.9519167 14.67883 3.9477127
7.958715 15.280114 4.0740376
7.6333833 15.256607 4.0341039
7.1685839 14.930099 3.9163938
6.8120813 14.800303 3.8527462
6.4519067 14.640621 3.7833362
6.3333035 15.029796 3.8567505
6.0575242 15.05558 3.8375545
5.4869647 15.032999 3.7842448
5.211607 15.033953 3.7626295
5.0294471 15.309281 3.8105412
4.7535572 15.30529 3.7897847
4.4845681 15.314946 3.7735984
4.2894831 15.58498 3.8224227
3.9729877 15.411263 3.7634547
3.753288 15.605591 3.7954862
3.4875791 15.61447 3.7833362
2.9498589 15.573857 3.7482319
2.6782589 15.517178 3.7236037
2.4197733 15.523059 3.71507
2.1676064 15.566293 3.7164795
1.9298993 15.729528 3.7474549
1.6665356 15.692201 3.7316039
1.4081408 15.686583 3.7243235
1.1595435 15.801716 3.7466803
0.90504307 15.868593 3.7585459
0.6470508 15.89154 3.7609878
0.3897804 15.960624 3.7753358
0.12815778 15.746093 3.7236037
-0.12833227 15.767531 3.7286735
-0.38755015 15.8693 3.7537341
-0.64392841 15.814855 3.7428389
-0.90543443 15.875454 3.7601709
-1.213784 16.54088 3.9219406
-1.4245131 15.868969 3.7676256
-1.6822476 15.840146 3.7667854
-1.9442576 15.846555 3.7753358
-2.2125671 15.889169 3.7935669
-2.4534576 15.739146 3.7667854
-2.7370822 15.857985 3.8053861
-2.9782012 15.723491 3.7842448
-3.2433434 15.71949 3.7954862
-3.5503502 15.895508 3.8514307
-3.8009958 15.803952 3.8437304
-4.0282955 15.625802 3.8158455
-4.2945576 15.603417 3.8269446
-4.5694118 15.60469 3.8449912
-4.7889624 15.419286 3.8180115
-5.0045352 15.23345 3.7916665
-5.3495612 15.431911 3.8622284
-5.6124067 15.37668 3.8707595
-5.8731785 15.312568 3.8781745
-6.0633335 15.070019 3.8412347
-6.4372921 15.276574 3.9200759
-6.6850953 15.169771 3.9200759
-7.0311213 15.2762 3.9766297
-7.2375836 15.073806 3.9540901
-7.9233174 15.83609 4.1873288
-5.9129214 11.352349 3.0268033
-6.0969195 11.254601 3.0268033
-6.2793026 11.153871 3.0268033
-6.460022 11.050184 3.0268033
-6.6390295 10.943571 3.0268033
-6.816278 10.834058 3.0268033
-6.9917207 10.721675 3.0268033
-7.1653109 10.60645 3.0268033
-7.3370023 10.488416 3.0268033
-7.5067496 10.367602 3.0268033
-7.6745086 10.244041 3.0268033
-7.8402338 10.117766 3.0268033
-8.0038815 9.9888105 3.0268033
-8.1654091 9.8572092 3.0268033
-8.3247719 9.7229948 3.0268033
-8.4819307 9.5862045 3.0268033
-8.6368408 9.4468746 3.0268033
-8.789463 9.3050413 3.0268033
-8.9397564 9.1607428 3.0268033
-9.0876818 9.0140171 3.0268033
-9.2331982 8.8649035 3.0268033
-9.3762684 8.7134409 3.0268033
-9.5168552 8.5596695 3.0268033
-9.6549196 8.4036293 3.0268033
-9.7904263 8.2453632 3.0268033
-9.9233389 8.0849133 3.0268033
-10.053621 7.9223199 3.0268033
-10.181241 7.757628 3.0268033
-10.306163 7.5908804 3.0268033
-10.428354 7.422122 3.0268033
-10.547782 7.2513967 3.0268033
-10.664415 7.0787501 3.0268033
-10.778223 6.9042282 3.0268033
-10.889175 6.7278767 3.0268033
-10.997242 6.5497427 3.0268033
-11.102395 6.369873 3.0268033
-11.204606 6.1883159 3.0268033
-11.303849 6.0051193 3.0268033
-11.400097 5.8203316 3.0268033
-11.493323 5.6340013 3.0268033
-11.583506 5.4461784 3.0268033
-11.670618 5.2569127 3.0268033
-11.754639 5.0662541 3.0268033
-11.835545 4.8742533 3.0268033
-11.913315 4.6809607 3.0268033
-11.987928 4.4864278 3.0268033
-12.059365 4.2907066 3.0268033
-12.127607 4.0938482 3.0268033
-12.192636 3.8959053 3.0268033
-12.254435 3.6969302 3.0268033
-12.312986 3.4969754 3.0268033
-12.368275 3.2960939 3.0268033
-12.420287 3.0943394 3.0268033
-12.469007 2.8917649 3.0268033
-12.514425 2.6884243 3.0268033
-12.556527 2.4843712 3.0268033
-12.595302 2.27966 3.0268033
-12.630738 2.0743446 3.0268033
-12.662829 1.8684798 3.0268033
-12.691565 1.6621199 3.0268033
-12.716938 1.4553196 3.0268033
-12.738941 1.2481337 3.0268033
-12.757569 1.040617 3.0268033
-12.772818 0.83282465 3.0268033
-12.784681 0.62481165 3.0268033
-12.793158 0.4166331 3.0268033
-12.755713 0.20765179 3.2013509
-12.750644 0.41524857 3.2013509
-12.742196 0.62273532 3.2013509
-12.730371 0.83005708 3.2013509
-12.715174 1.0371588 3.2013509
-12.696608 1.2439859 3.2013509
-12.674678 1.4504833 3.2013509
-12.649389 1.6565964 3.2013509
-12.620749 1.8622706 3.2013509
-12.588765 2.0674515 3.2013509
-12.553445 2.2720842 3.2013509
-12.514799 2.4761152 3.2013509
-12.472837 2.6794901 3.2013509
-12.427571 2.8821552 3.2013509
-12.379012 3.0840564 3.2013509
-12.327173 3.2851405 3.2013509
-12.272068 3.4853544 3.2013509
-12.213712 3.6846447 3.2013509
-12.152119 3.8829587 3.2013509
-12.087306 4.0802436 3.2013509
-12.019291 4.2764478 3.2013509
-11.948091 4.471519 3.2013509
-11.873725 4.6654053 3.2013509
-11.796213 4.8580551 3.2013509
-11.715576 5.0494184 3.2013509
-11.631835 5.2394433 3.2013509
-11.545012 5.4280801 3.2013509
-11.45513 5.6152787 3.2013509
-11.362212 5.8009896 3.2013509
-11.266285 5.9851632 3.2013509
-11.167372 6.1677513 3.2013509
-11.0655 6.3487053 3.2013509
-10.960696 6.527977 3.2013509
-10.852989 6.7055187 3.2013509
-10.742406 6.8812842 3.2013509
-10.628976 7.0552263 3.2013509
-10.512731 7.2272992 3.2013509
-10.393699 7.3974571 3.2013509
-10.271914 7.5656548 3.2013509
-10.147408 7.7318482 3.2013509
-10.020212 7.8959928 3.2013509
-9.8903618 8.0580454 3.2013509
-9.7578907 8.2179632 3.2013509
-9.6228352 8.3757029 3.2013509
-9.4852285 8.5312243 3.2013509
-9.3451099 8.6844845 3.2013509
-9.2025146 8.8354445 3.2013509
-9.0574818 8.9840622 3.2013509
-8.9100485 9.1303005 3.2013509
-8.7602549 9.2741194 3.2013509
-8.608139 9.4154816 3.2013509
-8.4537439 9.554348 3.2013509
-8.2971077 9.6906843 3.2013509
-8.1382742 9.8244514 3.2013509
-7.9772835 9.955617 3.2013509
-7.8141794 10.084144 3.2013509
-7.6490049 10.209999 3.2013509
-7.4818039 10.333149 3.2013509
-7.3126202 10.453561 3.2013509
-7.1414995 10.571203 3.2013509
-6.9684863 10.686045 3.2013509
-6.7936268 10.798055 3.2013509
-6.6169672 10.907204 3.2013509
-6.4385543 11.013463 3.2013509
-6.2584357 11.116804 3.2013509
-6.0766587 11.217199 3.2013509
-5.8932714 11.314623 3.2013509
-5.708323 11.409049 3.2013509
-5.5218625 11.500452 3.2013509
-5.3339381 11.588807 3.2013509
-7.2276549 16.400944 4.497581
-6.5488591 15.541338 4.232058
-6.2869716 15.625857 4.2266436
-5.9031873 15.390807 4.1365228
-5.7606301 15.782778 4.2161083
-5.414216 15.618421 4.1481085
-5.2406526 15.952176 4.2135344
-4.8067765 15.476644 4.0667219
-4.5634122 15.584201 4.074924
-4.313623 15.672688 4.0791593
-4.039032 15.66745 4.0601449
-3.7684677 15.668705 4.0440364
-3.5224893 15.77077 4.0550418
-3.2942157 15.966052 4.0909228
-3.0396276 16.047792 4.0986452
-2.8285196 16.387753 4.1731582
-2.4639361 15.806368 4.0143619
-2.1966612 15.774945 3.9967699
-1.9613941 15.986224 4.0416746
-1.6656592 15.683948 3.9578726
-1.4145443 15.757917 3.9702022
-1.1499109 15.670448 3.9429255
-0.90421456 15.854066 3.9848948
-0.64476049 15.83529 3.9770103
-0.38482869 15.757862 3.955467
-0.12898627 15.847886 3.9770103
0.12921317 15.875763 3.9840059
0.38316181 15.689608 3.9383342
0.64271325 15.78501 3.9643826
0.8943426 15.680976 3.9413888
1.1561687 15.755726 3.9643826
1.4166633 15.781523 3.9761496
1.6694422 15.719569 3.9668617
1.9351429 15.772265 3.9875813
2.1674914 15.565467 3.9436963
2.4394307 15.649162 3.9744365
2.7021284 15.655472 3.9866824
2.9299159 15.468567 3.9507093
3.1640759 15.335304 3.9293084
3.461555 15.497956 3.9848948
3.6996646 15.382632 3.9702022
3.9741285 15.415689 3.9949019
4.1966314 15.247622 3.9685268
4.4686427 15.26056 3.990299
4.7424889 15.269652 4.012332
4.9954791 15.205885 4.0164127
5.2450271 15.130361 4.0184846
5.4877782 15.035227 4.0164127
5.7259555 14.928728 4.012332
5.9208179 14.715805 3.9804833
6.2104125 14.738158 4.0133443
6.5529618 14.869934 4.0777373
6.791779 14.756192 4.0763254
7.005394 14.590221 4.0614424
7.2561707 14.502684 4.0694175
7.70719 14.797206 4.1867104
7.7538719 14.31325 4.0849533
8.1455278 14.46883 4.1666474
8.4794331 14.504487 4.2161083
8.5905094 14.160331 4.1561699
9.0480499 14.381323 4.2636995
6.9684863 10.686045 3.2013509
7.1414995 10.571203 3.2013509
7.3126202 10.453561 3.2013509
7.4818039 10.333149 3.2013509
7.6490049 10.209999 3.2013509
7.8141794 10.084144 3.2013509
7.9772835 9.955617 3.2013509
8.1382742 9.8244514 3.2013509
8.2971077 9.6906843 3.2013509
8.4537439 9.554348 3.2013509
8.608139 9.4154816 3.2013509
8.7602549 9.2741194 3.2013509
8.9100485 9.1303005 3.2013509
9.0574818 8.9840622 3.2013509
9.2025146 8.8354445 3.2013509
9.3451099 8.6844845 3.2013509
9.4852285 8.5312243 3.2013509
9.6228352 8.3757029 3.2013509
9.7578907 8.2179632 3.2013509
9.8903618 8.0580454 3.2013509
10.020212 7.8959928 3.2013509
10.147408 7.7318482 3.2013509
10.271914 7.5656548 3.2013509
10.393699 7.3974571 3.2013509
10.512731 7.2272992 3.2013509
10.628976 7.0552263 3.2013509
10.742406 6.8812842 3.2013509
10.852989 6.7055187 3.2013509
10.960696 6.527977 3.2013509
11.0655 6.3487053 3.2013509
11.167372 6.1677513 3.2013509
11.266285 5.9851632 3.2013509
11.362212 5.8009896 3.2013509
11.45513 5.6152787 3.2013509
11.545012 5.4280801 3.2013509
11.631835 5.2394433 3.2013509
11.715576 5.0494184 3.2013509
11.796213 4.8580551 3.2013509
15.883221 6.2408099 4.2823768
14.656666 5.4851909 3.9270821
14.147252 5.0335736 3.768136
14.11403 4.7643933 3.7381334
14.02929 4.48277 3.6958728
13.97846 4.2170358 3.6639116
14.110202 4.0073972 3.6808555
14.120792 3.7631326 3.6671515
14.555223 3.6262288 3.7641435
14.886747 3.4524779 3.8348365
15.590356 3.3492143 4.0015111
16.728315 3.3097806 4.2791905
17.114969 3.0976877 4.3646202
12.588765 2.0674515 3.2013509
17.571539 2.5927908 4.4571576
12.649389 1.6565964 3.2013509
12.674678 1.4504833 3.2013509
12.696608 1.2439859 3.2013509
12.715174 1.0371588 3.2013509
12.730371 0.83005708 3.2013509
12.742196 0.62273532 3.2013509
12.750644 0.41524857 3.2013509
12.755713 0.20765179 3.2013509
12.712487 0 3.3753016
12.710803 0.2069207 3.3753016
12.705751 0.41378656 3.3753016
12.697333 0.62054276 3.3753016
12.685551 0.82713461 3.3753016
12.670406 1.0335072 3.3753016
12.651906 1.2396061 3.3753016
12.630053 1.4453765 3.3753016
12.604853 1.6507639 3.3753016
12.576314 1.855714 3.3753016
12.544442 2.0601723 3.3753016
12.509247 2.2640848 3.3753016
17.002207 3.3639712 4.601779
12.428924 2.6700563 3.3753016
12.383817 2.8720076 3.3753016
15.903315 3.9620867 4.3515701
15.27671 4.0711799 4.1976929
14.721508 4.1810126 4.0633001
14.183867 4.2790031 3.9336104
13.952159 4.4581242 3.8889625
13.876517 4.6842179 3.8886185
13.899822 4.9455385 3.9171913
14.127176 5.2870317 4.0049877
14.180145 5.57164 4.0451818
14.270616 5.8770924 4.0977402
15.8046 6.811789 4.5694528
11.590881 5.2209964 3.3753016
11.504364 5.4089689 3.3753016
11.414799 5.5955086 3.3753016
11.322208 5.7805653 3.3753016
11.226619 5.9640908 3.3753016
11.128054 6.1460361 3.3753016
11.026541 6.3263526 3.3753016
10.922106 6.504993 3.3753016
10.814777 6.68191 3.3753016
10.704584 6.8570566 3.3753016
10.591554 7.0303864 3.3753016
10.475718 7.2018533 3.3753016
10.357105 7.3714123 3.3753016
10.235748 7.5390177 3.3753016
10.11168 7.7046261 3.3753016
9.9849329 7.8681927 3.3753016
9.8555393 8.0296745 3.3753016
9.7235355 8.1890287 3.3753016
9.5889549 8.3462143 3.3753016
9.4518337 8.5011873 3.3753016
9.3122072 8.6539078 3.3753016
9.1701145 8.8043365 3.3753016
9.0255919 8.9524317 3.3753016
8.8786783 9.098155 3.3753016
8.7294111 9.2414675 3.3753016
8.5778322 9.3823309 3.3753016
8.4239798 9.520709 3.3753016
8.2678957 9.6565647 3.3753016
8.1096201 9.7898617 3.3753016
7.9491968 9.9205647 3.3753016
7.7866673 10.048639 3.3753016
7.6220741 10.174051 3.3753016
7.455462 10.296768 3.3753016
7.2868738 10.416756 3.3753016
7.1163554 10.533984 3.3753016
6.9439516 10.648421 3.3753016
6.7697077 10.760037 3.3753016
6.5936699 10.868802 3.3753016
8.6931953 14.870137 4.5733604
7.9492083 14.120109 4.3023171
7.8770614 14.54065 4.390801
7.5516992 14.498675 4.3404284
7.377543 14.745267 4.3777156
7.0787373 14.742974 4.3422475
6.8265076 14.831645 4.3350582
6.4539027 14.64515 4.2492771
6.2395606 14.807331 4.2662969
5.9995046 14.911377 4.2675691
5.7928267 15.103075 4.2948747
5.4656649 14.974642 4.2324886
5.241909 15.121365 4.2492771
5.0196075 15.27933 4.2701387
4.7367463 15.251163 4.2401552
4.5037918 15.380596 4.2551923
4.2238007 15.346335 4.226131
3.9564786 15.347224 4.2080812
3.7314727 15.514885 4.236835
3.4731176 15.549724 4.2303486
3.1919055 15.470186 4.1940184
2.9522588 15.586528 4.2119713
2.6849215 15.555779 4.1912956
2.4226911 15.541777 4.176343
2.176229 15.628214 4.1894951
1.9171112 15.625299 4.1797938
1.6663835 15.690768 4.1894951
1.4092661 15.69912 4.1850448
1.1537893 15.7233 4.1859293
0.89565295 15.703951 4.176343
0.63979042 15.713225 4.1754866
0.384821 15.757547 4.1850448
0.12858807 15.798961 4.194932
-0.12875824 15.819868 4.2004833
-0.38490233 15.760878 4.1859293
-0.89983618 15.777298 4.1958489
-1.1572871 15.770967 4.1986198
-1.414465 15.757032 4.2004833
-1.7026842 16.032576 4.2807593
-1.9432739 15.838536 4.236835
-2.2685986 16.29155 4.3673172
-2.4456539 15.689086 4.2159276
-2.7059052 15.677354 4.2240524
-2.905992 15.34226 4.1459627
-3.2697799 15.847619 4.2963414
-3.4915547 15.63227 4.2528057
-3.7276447 15.498969 4.2324886
-4.0160456 15.578285 4.2714362
-4.2481027 15.434633 4.2504463
-4.5115547 15.407106 4.2625265
-4.8256049 15.537267 4.3196979
-5.0917974 15.49907 4.3315496
-5.284132 15.243166 4.2835045
-5.5578032 15.227079 4.3038387
-6.0182605 15.690826 4.4620137
-6.1312575 15.23884 4.3612876
-6.3902955 15.165046 4.3693614
-6.9581685 15.789427 4.5812879
-7.1541343 15.543465 4.5431123
-7.2786989 15.159437 4.4649081
-8.0007629 15.990876 4.7475243
-5.8725228 11.274787 3.3753016
-6.055264 11.177707 3.3753016
-6.2364011 11.077664 3.3753016
-6.4158854 10.974687 3.3753016
-6.5936699 10.868802 3.3753016
-6.7697077 10.760037 3.3753016
-6.9439516 10.648421 3.3753016
-7.1163554 10.533984 3.3753016
-7.2868738 10.416756 3.3753016
-7.455462 10.296768 3.3753016
-7.6220741 10.174051 3.3753016
-7.7866673 10.048639 3.3753016
-7.9491968 9.9205647 3.3753016
-8.1096201 9.7898617 3.3753016
-8.2678957 9.6565647 3.3753016
-8.4239798 9.520709 3.3753016
-8.5778322 9.3823309 3.3753016
-8.7294111 9.2414675 3.3753016
-8.8786783 9.098155 3.3753016
-9.0255919 8.9524317 3.3753016
-9.1701145 8.8043365 3.3753016
-9.3122072 8.6539078 3.3753016
-9.4518337 8.5011873 3.3753016
-9.5889549 8.3462143 3.3753016
-9.7235355 8.1890287 3.3753016
-9.8555393 8.0296745 3.3753016
-9.9849329 7.8681927 3.3753016
-10.11168 7.7046261 3.3753016
-10.235748 7.5390177 3.3753016
-10.357105 7.3714123 3.3753016
-10.475718 7.2018533 3.3753016
-10.591554 7.0303864 3.3753016
-10.704584 6.8570566 3.3753016
-10.814777 6.68191 3.3753016
-10.922106 6.504993 3.3753016
-11.026541 6.3263526 3.3753016
-11.128054 6.1460361 3.3753016
-11.226619 5.9640908 3.3753016
-11.322208 5.7805653 3.3753016
-11.414799 5.5955086 3.3753016
-11.504364 5.4089689 3.3753016
-11.590881 5.2209964 3.3753016
-11.674328 5.0316401 3.3753016
-11.754682 4.840951 3.3753016
-11.83192 4.6489792 3.3753016
-11.906024 4.4557757 3.3753016
-11.976973 4.2613912 3.3753016
-12.044749 4.0658779 3.3753016
-12.109333 3.8692875 3.3753016
-12.17071 3.6716716 3.3753016
-12.228861 3.473083 3.3753016
-12.283772 3.2735744 3.3753016
-12.335428 3.0731981 3.3753016
-12.383817 2.8720076 3.3753016
-12.428924 2.6700563 3.3753016
-12.470737 2.4673975 3.3753016
-12.509247 2.2640848 3.3753016
-12.544442 2.0601723 3.3753016
-12.576314 1.855714 3.3753016
-12.604853 1.6507639 3.3753016
-12.630053 1.4453765 3.3753016
-12.651906 1.2396061 3.3753016
-12.670406 1.0335072 3.3753016
-12.685551 0.82713461 3.3753016
-12.697333 0.62054276 3.3753016
-12.705751 0.41378656 3.3753016
-12.663522 0.20615099 3.5486224
-12.658488 0.41224736 3.5486224
-12.650102 0.61823452 3.5486224
-12.638363 0.82405782 3.5486224
-12.623275 1.0296628 3.5486224
-12.604843 1.234995 3.5486224
-12.583071 1.4399999 3.5486224
-12.557965 1.6446234 3.5486224
-12.529532 1.848811 3.5486224
-12.497779 2.0525088 3.5486224
-12.462715 2.2556629 3.5486224
-12.424349 2.4582191 3.5486224
-12.38269 2.6601241 3.5486224
-12.337751 2.8613243 3.5486224
-12.289543 3.0617664 3.5486224
-12.238078 3.2613971 3.5486224
-12.183372 3.4601638 3.5486224
-12.125437 3.6580138 3.5486224
-12.064289 3.8548944 3.5486224
-11.999945 4.0507536 3.5486224
-11.932421 4.2455397 3.5486224
-11.861735 4.4392009 3.5486224
-11.787908 4.6316857 3.5486224
-11.710957 4.8229437 3.5486224
-11.630901 5.0129237 3.5486224
-11.547766 5.2015753 3.5486224
-11.46157 5.3888488 3.5486224
-11.372337 5.5746942 3.5486224
-11.280092 5.7590628 3.5486224
-11.184857 5.9419055 3.5486224
-11.086659 6.1231737 3.5486224
-10.985524 6.3028197 3.5486224
-10.881478 6.4807959 3.5486224
-10.774549 6.6570549 3.5486224
-10.664764 6.8315496 3.5486224
-10.552155 7.0042348 3.5486224
-10.436749 7.1750636 3.5486224
-10.318579 7.3439918 3.5486224
-10.197674 7.5109739 3.5486224
-10.074067 7.6759663 3.5486224
-9.9477911 7.8389244 3.5486224
-9.8188791 7.9998059 3.5486224
-9.6873655 8.1585674 3.5486224
-9.5532856 8.3151674 3.5486224
-9.4166746 8.4695644 3.5486224
-9.2775679 8.6217175 3.5486224
-9.1360035 8.7715855 3.5486224
-8.9920187 8.9191303 3.5486224
-8.8456507 9.064311 3.5486224
-8.6969395 9.2070904 3.5486224
-8.5459242 9.3474312 3.5486224
-8.3926439 9.4852943 3.5486224
-8.2371407 9.6206446 3.5486224
-8.0794544 9.7534456 3.5486224
-7.9196272 9.8836622 3.5486224
-7.7577024 10.01126 3.5486224
-7.5937214 10.136206 3.5486224
-7.4277291 10.258466 3.5486224
-7.259768 10.378008 3.5486224
-7.0898838 10.4948 3.5486224
-6.9181213 10.608811 3.5486224
-6.7445254 10.720012 3.5486224
-6.5691428 10.828372 3.5486224
-6.3920197 10.933864 3.5486224
-6.2132025 11.036457 3.5486224
-6.0327396 11.136127 3.5486224
-5.850678 11.232847 3.5486224
-5.6670661 11.32659 3.5486224
-5.4819531 11.417332 3.5486224
-5.2953873 11.505049 3.5486224
-6.9383698 15.744499 4.8207631
-6.4891067 15.399538 4.6821752
-6.1529355 15.292719 4.6186309
-6.0364347 15.738211 4.7228718
-5.6110401 15.372937 4.5852385
-5.317183 15.338509 4.5485492
-5.0628648 15.411002 4.5450039
-4.7440252 15.2746 4.4814062
-4.4771438 15.289592 4.46383
-4.2750888 15.532681 4.5138836
-4.0314589 15.638073 4.5248399
-3.7597589 15.632496 4.5049195
-3.4824946 15.591706 4.4762344
-3.2158625 15.586299 4.4590616
-2.9548554 15.600236 4.448698
-2.7164822 15.738634 4.4749613
-2.483031 15.928864 4.5169578
-2.1870935 15.706235 4.4431415
-1.9198624 15.647722 4.4171624
-1.6834142 15.85113 4.4662542
-1.4228878 15.850863 4.4590616
-1.1656269 15.884618 4.4626279
-0.90548128 15.876276 4.4555531
-0.6432808 15.798949 4.4303255
-0.38497585 15.763888 4.4181514
-0.12893617 15.841729 4.4387913
0.12903072 15.853346 4.4420462
0.38603666 15.807326 4.4303255
0.64482439 15.836859 4.4409561
0.89494002 15.69145 4.4036832
1.1532377 15.715784 4.4151955
1.4082671 15.68799 4.4132433
1.6361715 15.40629 4.3409147
1.9049166 15.525908 4.3827758
2.1767578 15.632012 4.4221449
2.4217997 15.536058 4.4055696
2.6932237 15.60388 4.4366465
2.9224739 15.429277 4.3999457
3.2228179 15.620009 4.4687057
3.422421 15.322747 4.3990188
3.6800227 15.300964 4.40938
3.9390666 15.279683 4.4211407
4.1654248 15.13424 4.3980947
4.4283648 15.123009 4.4151955
4.6888528 15.096959 4.4292884
4.9493961 15.065612 4.4431415
5.1489372 14.853169 4.4046245
5.4921141 15.047107 4.4880543
5.719573 14.912088 4.4749613
5.9076643 14.683114 4.4345212
6.2200708 14.761079 4.4880543
6.4263868 14.582711 4.4650388
6.6952333 14.546432 4.4867077
6.8884101 14.346578 4.4590616
7.2582636 14.506867 4.5450039
7.5082188 14.415195 4.5539737
7.7418594 14.291075 4.5539737
7.9168582 14.062646 4.5216522
8.3735332 14.323339 4.6486883
8.6514158 14.260726 4.6734571
9.1076918 14.476121 4.7919993
6.9181213 10.608811 3.5486224
7.0898838 10.4948 3.5486224
7.259768 10.378008 3.5486224
7.4277291 10.258466 3.5486224
7.5937214 10.136206 3.5486224
7.7577024 10.01126 3.5486224
7.9196272 9.8836622 3.5486224
8.0794544 9.7534456 3.5486224
8.2371407 9.6206446 3.5486224
8.3926439 9.4852943 3.5486224
8.5459242 9.3474312 3.5486224
8.6969395 9.2070904 3.5486224
8.8456507 9.064311 3.5486224
8.9920187 8.9191303 3.5486224
9.1360035 8.7715855 3.5486224
9.2775679 8.6217175 3.5486224
9.4166746 8.4695644 3.5486224
9.5532856 8.3151674 3.5486224
9.6873655 8.1585674 3.5486224
9.8188791 7.9998059 3.5486224
9.9477911 7.8389244 3.5486224
10.074067 7.6759663 3.5486224
10.197674 7.5109739 3.5486224
10.318579 7.3439918 3.5486224
10.436749 7.1750636 3.5486224
10.552155 7.0042348 3.5486224
10.664764 6.8315496 3.5486224
10.774549 6.6570549 3.5486224
10.881478 6.4807959 3.5486224
10.985524 6.3028197 3.5486224
11.086659 6.1231737 3.5486224
11.184857 5.9419055 3.5486224
11.280092 5.7590628 3.5486224
11.372337 5.5746942 3.5486224
11.46157 5.3888488 3.5486224
11.547766 5.2015753 3.5486224
11.630901 5.0129237 3.5486224
11.710957 4.8229437 3.5486224
11.787908 4.6316857 3.5486224
11.861735 4.4392009 3.5486224
15.282804 5.4376016 4.5450039
15.115459 5.1024408 4.4699421
14.964874 4.7817168 4.4018087
15.439489 4.6578007 4.5185113
15.217666 4.3219247 4.4324141
14.854857 3.9587579 4.3073983
14.8834 3.7079895 4.2976022
15.166345 3.5173209 4.3621912
15.943557 3.425091 4.5690932
16.303995 3.2258267 4.6567211
16.87191 3.0536959 4.8040929
16.835388 2.764874 4.7802444
12.529532 1.848811 3.5486224
12.557965 1.6446234 3.5486224
12.583071 1.4399999 3.5486224
12.604843 1.234995 3.5486224
12.623275 1.0296628 3.5486224
12.638363 0.82405782 3.5486224
12.650102 0.61823452 3.5486224
12.658488 0.41224736 3.5486224
12.663522 0.20615099 3.5486224
12.615548 0 3.7212813
12.613877 0.20534281 3.7212813
12.608864 0.41063124 3.7212813
12.60051 0.61581087 3.7212813
12.588817 0.82082731 3.7212813
12.573789 1.0256263 3.7212813
12.555429 1.2301534 3.7212813
12.533742 1.4343548 3.7212813
12.508735 1.638176 3.7212813
12.480413 1.8415632 3.7212813
12.448785 2.0444624 3.7212813
12.413857 2.24682 3.7212813
12.375642 2.4485822 3.7212813
12.334146 2.6496959 3.7212813
17.128944 3.9724796 5.1867223
16.659336 4.1504388 5.064311
15.715954 4.1882367 4.7976208
15.862133 4.5049582 4.8639879
15.627649 4.7145648 4.8149819
12.016994 3.8397822 3.7212813
11.952902 4.034874 3.7212813
11.885643 4.2288961 3.7212813
11.815234 4.4217982 3.7212813
11.741695 4.6135283 3.7212813
11.665046 4.8040366 3.7212813
11.585305 4.9932714 3.7212813
11.502496 5.1811838 3.7212813
11.416637 5.367723 3.7212813
11.327755 5.5528398 3.7212813
11.235871 5.736486 3.7212813
11.14101 5.9186115 3.7212813
11.043197 6.0991693 3.7212813
10.942458 6.278111 3.7212813
10.83882 6.4553895 3.7212813
10.732309 6.6309571 3.7212813
10.622956 6.8047681 3.7212813
10.510788 6.9767761 3.7212813
10.395835 7.1469355 3.7212813
10.278127 7.3152013 3.7212813
10.157696 7.4815292 3.7212813
10.034574 7.6458745 3.7212813
9.9087925 7.8081937 3.7212813
9.780386 7.9684443 3.7212813
9.6493883 8.1265841 3.7212813
9.5158339 8.2825699 3.7212813
9.3797588 8.4363613 3.7212813
9.2411976 8.5879183 3.7212813
9.1001883 8.7371988 3.7212813
8.9567671 8.8841648 3.7212813
8.8109732 9.0287771 3.7212813
8.6628456 9.1709967 3.7212813
8.5124216 9.3107862 3.7212813
8.3597422 9.4481096 3.7212813
8.2048483 9.5829287 3.7212813
8.047781 9.715209 3.7212813
7.8885803 9.8449154 3.7212813
7.7272902 9.9720135 3.7212813
7.563952 10.096469 3.7212813
7.3986101 10.21825 3.7212813
7.231308 10.337323 3.7212813
7.0620899 10.453657 3.7212813
6.8910003 10.567222 3.7212813
6.7180853 10.677986 3.7212813
6.5433903 10.785922 3.7212813
8.8645535 15.163255 5.1810427
8.3573112 14.845018 5.0251546
7.7824969 14.36609 4.819509
7.5810866 14.555097 4.8408723
7.2775602 14.545434 4.7976208
7.0277257 14.636732 4.7893643
6.6750288 14.502534 4.7092724
6.4892364 14.725328 4.7466865
6.0639219 14.390516 4.606329
5.9918494 14.89235 4.7351136
5.7104025 14.888178 4.7036061
5.4239864 14.860453 4.6663332
5.2438378 15.126929 4.722578
5.0206432 15.282483 4.7449965
4.736752 15.251182 4.710712
4.4851475 15.316924 4.7078424
4.207726 15.287932 4.677258
3.8958964 15.112226 4.6034875
3.6882632 15.335227 4.6525121
3.408288 15.259471 4.6120849
3.213768 15.576146 4.6913638
2.9159939 15.395066 4.6219144
2.6879268 15.573192 4.6616368
2.4123056 15.475153 4.6199231
2.1712203 15.592245 4.6437125
1.9127641 15.589869 4.6331172
1.6484852 15.522236 4.6044321
1.3982252 15.576123 4.6130538
1.1540205 15.726452 4.6513953
0.8964057 15.717149 4.6437125
0.64075899 15.737013 4.645884
0.3833808 15.698575 4.6320801
0.12777638 15.699233 4.6310468
-0.12812585 15.742169 4.6437125
-0.3840768 15.727074 4.6404891
-0.64390808 15.814354 4.6687164
-0.89788878 15.743153 4.6513953
-1.1583179 15.785015 4.6687164
-1.4165642 15.780419 4.6735587
