# .PCD v0.7 - Point Cloud Data file format
VERSION 0.7
FIELDS x y z
SIZE 4 4 4
TYPE F F F
COUNT 1 1 1
WIDTH 639
HEIGHT 1
VIEWPOINT 0 0 0 1 0 0 0
POINTS 639
DATA ascii
2.8522973 0.18597804 0.039044969
2.8324435 0.37094405 0.039021417
2.7515705 0.5444119 0.038314935
2.7852807 0.74226576 0.039374661
2.6690135 0.90096384 0.038479783
2.6525595 1.0924082 0.039186265
2.5526416 1.2512991 0.038833022
4.7312589 2.7145061 0.074510418
2.5725048 1.707559 0.042177044
4.4319582 3.3769441 0.076111779
5.0480976 4.393858 0.091418914
3.4161465 3.3884556 0.065726481
2.5498371 2.881804 0.052562345
2.2460532 2.8985159 0.050089654
1.7930992 2.6542346 0.043754853
1.5713586 2.687886 0.042530283
1.3538011 2.7058003 0.041329265
1.141408 2.7087171 0.04015179
0.93564361 2.6990566 0.039021417
0.75118542 2.7292821 0.038668178
0.56922674 2.7588673 0.038479783
0.38518685 2.7661531 0.038150087
0.20426548 2.7836344 0.038126539
0.022309324 2.7410328 0.037443604
-0.15598436 2.7349551 0.037420057
-0.33381289 2.720722 0.037443604
-0.51975369 2.7440531 0.038150087
-0.69676304 2.7027516 0.038126539
-0.89212531 2.7155662 0.039044969
-1.071427 2.662962 0.039209813
-1.2528684 2.6093647 0.039539505
-1.4580494 2.5899203 0.040599231
-1.6375977 2.5112257 0.04095247
-1.8202603 2.429709 0.041470561
-2.033917 2.3755322 0.042718679
-2.4358196 2.496032 0.047640514
-3.5403051 3.1842284 0.065043546
-3.6479065 2.8745742 0.063442186
-3.7419715 2.5725331 0.06202922
-3.8125529 2.2706821 0.060616251
-3.9061525 1.9942904 0.059909768
-3.9468908 1.7011117 0.058708746
-3.9988589 1.4227887 0.057978716
-3.9983809 1.1355685 0.056777693
-4.0755925 0.87554336 0.056942541
-4.0488811 0.5974378 0.055906363
-4.0516815 0.33048996 0.055529572
-4.0434632 0.065824017 0.27661708
-4.042613 0.3297503 0.2774407
-4.0517311 0.59785831 0.28014687
-4.0227451 0.8641904 0.28144112
-3.9894319 1.133027 0.28367665
-3.9915295 1.4201809 0.28979495
-3.9127829 1.686411 0.29144216
-3.8545139 1.9679261 0.29603088
-3.7936749 2.2594388 0.30203152
-3.7250917 2.5609286 0.30920872
-3.6600077 2.88411 0.31873915
-3.5784225 3.2185121 0.32921082
-2.4291666 2.4892144 0.23790717
-2.1367621 2.4956512 0.22472933
-1.8698158 2.4958563 0.21331637
-1.6555429 2.5387444 0.20731574
-1.4674437 2.6066074 0.20460959
-1.2612323 2.6267841 0.19931491
-1.0773758 2.677747 0.19743235
-0.89764476 2.732367 0.19672641
-0.69992703 2.7150247 0.19178471
-0.52083123 2.749742 0.19143173
-0.33453208 2.7265837 0.18790196
-0.15651675 2.7442896 0.18801962
0.022357389 2.7469385 0.18790196
0.20481539 2.7911282 0.19143173
0.3859854 2.7718878 0.19143173
0.56795275 2.7526927 0.19225535
0.75269938 2.7347827 0.19402024
0.93749332 2.7043922 0.19578514
1.141525 2.7089951 0.2010798
1.3269113 2.6520567 0.20284469
1.5226989 2.6046512 0.20637447
1.7679019 2.6169364 0.21602254
2.020822 2.6078565 0.22567061
2.4073491 2.7207651 0.24849652
2.6525486 2.6310475 0.25555608
3.6316335 3.160969 0.32932848
3.7981372 2.8940022 0.32662231
3.9898517 2.6483555 0.32756358
4.317831 2.4773066 0.34050611
2.6627681 1.305283 0.20284469
2.9042866 1.1960775 0.21484594
3.9407773 1.330266 0.28450027
2.8023164 0.74680567 0.19837363
2.8584683 0.56556219 0.19931491
2.9386706 0.38485584 0.20272703
3.1651776 0.20637874 0.21696381
3.2288957 0 0.39894593
5.2881298 0.34480137 0.65476179
3.0641296 0.40128627 0.38182107
5.1213675 1.013288 0.64503658
2.9116735 0.77594894 0.37230724
2.8080008 0.94788098 0.36617613
2.879611 1.1859152 0.38478091
3.0083787 1.4747005 0.41395661
4.4095426 2.5299249 0.62812316
4.2142053 2.7972753 0.62495184
3.8694725 2.9483566 0.60106164
3.6320093 3.1612961 0.59493047
3.54497 3.5162349 0.61691797
2.5478389 2.8795457 0.47505644
2.0888655 2.6956663 0.42135626
1.8017645 2.6670616 0.39767742
1.5786446 2.7003491 0.38647225
1.3368191 2.6718588 0.36913598
1.1455245 2.7184863 0.36448479
0.94099927 2.7145059 0.35497096
0.75557566 2.7452333 0.3517997
0.57017022 2.7634401 0.34862843
0.38750759 2.782819 0.34714851
0.20462129 2.7884831 0.34545717
0.022755792 2.7958882 0.34545717
-0.15706261 2.7538607 0.34080595
-0.33590901 2.7378061 0.34080595
-0.51333183 2.710149 0.34080595
-0.70139402 2.720715 0.34714851
-0.89669067 2.7294631 0.35497096
-1.0768534 2.6764486 0.35645089
-1.2598236 2.6238501 0.35962218
-1.4404656 2.5586865 0.36279345
-1.642215 2.5183065 0.37146157
-1.8528596 2.473223 0.38182107
-2.0354493 2.3773217 0.38668367
-2.5503178 2.6133604 0.45116621
-3.5520825 3.1948214 0.59027928
-3.6314669 2.8616197 0.57125169
-3.7253592 2.5611126 0.55856657
-3.8003056 2.2633879 0.54651576
-3.8907518 1.9864275 0.5397504
-3.9284704 1.6931723 0.5285452
-3.9932332 1.4207871 0.52368259
-3.9932673 1.1341162 0.51290029
-4.0318294 0.86614186 0.50951761
-4.0423999 0.59648144 0.50486642
-4.0453568 0.32997406 0.50148368
-4.014636 0.065354742 0.72055554
-4.0255566 0.32835898 0.72481918
-4.0208445 0.59330082 0.7293874
-3.9986093 0.85900539 0.73395556
-4.0093389 1.1386807 0.74796468
-3.9603312 1.4090806 0.75436014
-3.896102 1.6792216 0.7613647
-3.8103285 1.9453672 0.76776016
-3.7587872 2.2386601 0.7851193
-3.6834769 2.5323193 0.80217385
-3.561558 2.8065312 0.81374663
-3.4748688 3.1253736 0.83871937
-3.3435652 3.4262166 0.85912395
-2.1257377 2.482775 0.58655536
-1.859978 2.4827247 0.55670989
-1.6694708 2.5601025 0.54848713
-1.4410847 2.5597861 0.52716893
-1.2611958 2.6267083 0.52290529
-1.0774823 2.6780119 0.51803255
-0.89724737 2.7311575 0.51590073
-0.70154583 2.7213042 0.50432801
-0.52331424 2.762851 0.50463253
-0.33458796 2.7270389 0.49305978
-0.15654154 2.7447245 0.49336433
0.022678791 2.7864275 0.50006437
0.20479825 2.7908947 0.50219619
0.38665527 2.7766984 0.50310981
0.56821573 2.753967 0.50463253
0.75250244 2.7340674 0.50889617
0.94992101 2.7402425 0.52046895
1.1406989 2.7070346 0.52716893
1.3265637 2.6513619 0.53204167
1.5399432 2.6341484 0.54757351
1.786919 2.6450865 0.57285082
2.0165629 2.6023602 0.590819
2.4796154 2.8024399 0.67152369
3.4290121 3.4012167 0.8667376
3.6110439 3.143048 0.85912395
5.5964298 4.2642169 1.2626473
5.4124017 3.5926056 1.1658016
4.9413891 2.8350658 1.0223606
5.8468032 2.8660896 1.1685426
2.9029598 1.195531 0.56340986
2.9167113 0.98457783 0.55244625
5.2030768 1.3865983 0.96632409
5.2806058 1.0447941 0.96601957
3.1280637 0.40965927 0.56615078
5.5358291 0.36095208 0.99556053
5.4731941 0 1.2942468
5.9806323 0.38995454 1.4172438
5.3020792 0.69437385 1.2644894
5.3180871 1.05221 1.281947
6.2192311 1.6573993 1.5219898
5.196836 1.7542667 1.2970241
5.0251398 2.0695121 1.2851212
4.8798394 2.3920863 1.2851212
5.5288515 3.1721158 1.5073094
4.1630411 2.763314 1.1815655
3.8556466 2.9378219 1.1462535
3.5905168 3.1251812 1.1256218
3.405777 3.37817 1.1343505
3.153188 3.5637062 1.1252249
2.0934808 2.7016222 0.8082099
1.7874042 2.6458049 0.75504345
1.5674343 2.6811733 0.73441166
1.3506235 2.6994493 0.71377987
1.1428033 2.7120285 0.69592547
0.95183408 2.7457612 0.68719661
0.76404101 2.7759905 0.68084842
0.57705635 2.7968149 0.67529368
0.38506597 2.765285 0.66021663
0.20346797 2.7727661 0.65743929
0.022641188 2.7818072 0.65783602
-0.15840434 2.777386 0.65783602
-0.33387464 2.721225 0.6483137
-0.51959056 2.7431922 0.66021663
-0.69990665 2.7149456 0.66299397
-0.87926024 2.6764059 0.66616809
-1.0703254 2.6602237 0.67807102
-1.2520378 2.6076345 0.68402255
-1.4305733 2.541115 0.68957722
-1.6075431 2.4651375 0.69592547
-1.8611066 2.4842312 0.73401487
-2.0438974 2.3871889 0.74314046
-4.1190777 4.2208991 1.3946283
-3.5391726 3.1832099 1.1256218
-3.5806439 2.8215709 1.07801
-3.6736829 2.5255861 1.0542041
-3.7869782 2.2554502 1.0423012
-3.8405252 1.9607842 1.0196855
-3.9214442 1.6901441 1.0097665
-3.9409025 1.402168 0.98913467
-3.986661 1.1322399 0.98000908
-3.9780626 0.85459137 0.96215463
-4.0019984 0.59051996 0.95659995
-4.0051837 0.3266972 0.9502517
-3.9484975 0.064278066 1.1648655
-3.9606719 0.32306644 1.1721824
-3.9557989 0.58370292 1.1794995
-3.9805777 0.85513175 1.2009627
-3.940366 1.1190919 1.2082796
-3.8950374 1.3858492 1.219499
-3.831543 1.6513966 1.2307184
-3.7851999 1.9325378 1.2536451
-3.6599638 2.1798031 1.2565718
-3.6207612 2.4892035 1.2960836
-3.5277636 2.7799008 1.3248638
-3.4771228 3.1274009 1.3794973
-6.9044447 7.0751195 2.9160662
-2.095118 2.4470124 0.95023364
-1.8640416 2.4881487 0.9170633
-1.6792316 2.5750709 0.90681946
-1.4286239 2.5376523 0.85901511
-1.2504642 2.6043575 0.8521859
-1.0684865 2.6556532 0.84438115
-0.8898201 2.7085493 0.84096652
-0.69601637 2.6998551 0.82243013
-0.51918393 2.7410452 0.82291794
-0.33812734 2.7558866 0.81901556
-0.15809985 2.772047 0.81901556
0.022503452 2.7648845 0.81560093
0.20598295 2.8070393 0.83023494
0.38978228 2.7991543 0.83364952
0.57375586 2.7808187 0.83755195
0.75654519 2.7487557 0.84096652
0.94191378 2.717144 0.84828353
1.1308355 2.6836274 0.85901511
1.3370864 2.6723933 0.88145393
1.5506967 2.6525428 0.90633166
1.7681355 2.6172824 0.93169725
2.0187542 2.6051884 0.97218466
5.087923 5.7503271 2.2648537
4.8630681 4.8236485 2.0204661
5.4560032 4.748898 2.1336355
5.9573102 4.5391908 2.2092445
4.4929857 2.982322 1.5907146
4.6574278 2.6721463 1.5838853
5.961813 2.9224672 1.9585154
5.1974053 2.1404564 1.6580309
5.087502 1.7173594 1.5838853
5.1868634 1.3822776 1.5833975
5.303122 1.0492491 1.5946169
5.3224411 0.69704056 1.5833975
5.4687285 0.35657695 1.616568
5.4667377 0 1.9428791
5.497304 0.35844013 1.957891
5.4462252 0.71325165 1.9521172
5.1603794 1.0210067 1.869552
4.9903951 1.3299196 1.8354867
5.1226387 1.7292203 1.9215161
4.8655782 2.0037997 1.8701295
4.7686539 2.3375835 1.8874508
5.0883784 2.9193995 2.0849142
5.4534278 3.6198378 2.3262587
5.1494908 3.9236705 2.300854
4.9653897 4.3218689 2.3395383
5.3576465 5.314218 2.6819239
5.0446639 5.701436 2.7055962
2.1902027 2.8264413 1.2708104
1.7843058 2.6412184 1.1328169
1.566859 2.6801894 1.1033705
1.3498992 2.6980019 1.0721922
1.1437365 2.7142432 1.0467875
0.92480344 2.6677856 1.0034841
0.75400722 2.7395346 1.0098352
0.57055134 2.7652872 1.0034841
0.38785127 2.7852869 0.99944246
0.20461652 2.7884183 0.99366862
0.022702374 2.7893248 0.99135911
-0.15670478 2.7475867 0.97807944
-0.33514372 2.7315686 0.97807944
-0.5139764 2.7135518 0.98154372
-0.68984938 2.6759334 0.98212105
-0.88125747 2.6824853 1.0034841
-1.0557445 2.6239839 1.0052162
-1.2319713 2.5658419 1.0115674
-1.4273887 2.5354581 1.0340852
-1.6248291 2.4916453 1.0571803
-6.0693693 8.1014795 3.5976462
-2.0096393 2.3471768 1.0981742
-4.071115 4.171751 2.0716345
-3.4497442 3.1027761 1.6489934
-3.5320258 2.7832596 1.5981841
-3.6253092 2.4923301 1.5635414
-3.6988347 2.2029536 1.5300534
-3.7909241 1.9354602 1.512732
-3.8327336 1.6519098 1.4832858
-3.861686 1.3739829 1.4567263
-3.9053943 1.1091597 1.4428692
-3.935931 0.8455404 1.4307443
-3.9568908 0.58386403 1.4215062
-3.9622071 0.32319167 1.4128455
-3.8456421 0.062603667 1.6085371
-3.8556151 0.31449711 1.6178504
-3.8867793 0.57351863 1.6431293
-3.8754408 0.83254558 1.6577644
-3.8360114 1.0894544 1.667743
-3.8244352 1.360729 1.6976786
-3.7643142 1.622421 1.7143095
-3.6479421 1.8624607 1.712979
-3.6242611 2.1585391 1.764202
-3.5495393 2.4402397 1.8014551
-3.44946 2.7181971 1.8367126
-3.3752782 3.0357997 1.8985794
-6.8722315 7.04211 4.1151409
-2.0224662 2.3621583 1.3005335
-5.1242414 6.8399091 3.5743053
-1.6369188 2.5101848 1.2533019
-1.4194049 2.5212765 1.2100617
-1.1869451 2.4720654 1.1468643
-1.036054 2.5750446 1.1608343
-0.87574673 2.6657109 1.1734737
-0.69607943 2.7000997 1.1661562
-0.5103386 2.694346 1.1468643
-0.33220693 2.7076328 1.1408772
-0.15741478 2.7600355 1.1561776
0.022499748 2.7644293 1.1561776
0.19975793 2.7222075 1.1415424
0.37645435 2.7034421 1.1415424
0.56376934 2.7324169 1.1668214
0.74457967 2.7052815 1.1734737
0.94090182 2.7142248 1.2014136
1.1433035 2.7132156 1.2313491
1.3330736 2.6643729 1.2459843
1.563814 2.6749806 1.2958769
1.7568079 2.6005147 1.3125077
2.0275111 2.6164889 1.384353
5.2954941 5.9849219 3.3421383
5.6014042 5.5560002 3.2995634
4.7980218 4.1761923 2.6602728
5.3265376 4.0585713 2.8006375
4.4780345 2.9723978 2.2478275
6.0733581 3.4845202 2.9283624
5.5402274 2.715807 2.5804448
5.7978506 2.3877392 2.6223545
4.9055567 1.6559411 2.1653385
4.9644804 1.3230135 2.1487076
5.1789169 1.0246744 2.2079134
5.4585705 0.71486843 2.3023767
6.6315846 0.4323985 2.77935
6.2527337 0 3.0262024
5.4063144 0.35250735 2.622108
5.1103282 0.66926169 2.4944201
4.9981022 0.98889941 2.465878
4.9006753 1.3060097 2.4546115
4.8376646 1.6330233 2.4711359
5.7514944 2.3686481 3.0104294
4.7212148 2.3143289 2.5447443
5.8475137 3.3549445 3.2628007
5.1461787 3.415894 2.9893985
4.8364854 3.6851749 2.9428298
5.4421806 4.736867 3.4918878
5.1885562 5.1464982 3.5369539
5.1409402 5.8102465 3.7547746
2.17115 2.8018539 1.7155241
1.8278708 2.7057054 1.5803251
3.7697678 6.4483728 3.6150689
1.3568864 2.7119668 1.4676594
1.1468232 2.7215683 1.429353
0.94444102 2.7244344 1.3955534
0.7589978 2.7576668 1.3842868
0.56635946 2.7449706 1.3564959
0.3848463 2.7637074 1.350487
0.19739634 2.6900249 1.3054208
0.021876525 2.6878572 1.300914
-0.15296617 2.6820357 1.3001629
-0.33338475 2.7172325 1.3249494
-0.50225389 2.6516626 1.3061718
-0.6764313 2.6238844 1.3114295
-0.8491109 2.5846336 1.3166872
-1.0149009 2.5224698 1.3159362
-1.1681417 2.4329033 1.3061718
-1.4138002 2.5113211 1.3948022
-1.5801369 2.4231107 1.4000599
-1.8740224 2.5014713 1.5127257
-7.7910886 9.0996742 5.7977805
-2.2566862 2.3124704 1.5638008
-8.5998192 7.7348666 5.5979867
-3.4691427 2.7337072 2.1376452
-3.5258405 2.4239473 2.0707967
-3.6107481 2.150491 2.0339928
-3.6600857 1.8686606 1.9889264
-3.6470718 1.5718894 1.922078
-3.7196863 1.3234595 1.9108114
-3.7620854 1.0684589 1.892785
-3.7583883 0.80739963 1.8604873
-3.7553632 0.5541274 1.8372031
-3.8190362 0.31151342 1.8544786
-3.7242372 0.060627304 2.0609586
-3.7229261 0.30367386 2.0668015
-3.7624388 0.55517143 2.1043646
-3.7404685 0.80355 2.1168857
-3.702028 1.0514022 2.1294067
-3.6584647 1.3016769 2.1486056
-3.6269767 1.5632285 2.185334
-3.5484834 1.811682 2.2045329
-3.4904866 2.0788658 2.2479389
-3.4124739 2.34601 2.2913451
-3.3142164 2.6116242 2.3347514
-3.2045684 2.8822594 2.3848352
-9.2899284 9.5195713 7.3598509
-8.6714592 10.127912 7.3773799
-8.3260727 11.113759 7.6837277
-1.6225408 2.4881363 1.6435915
-1.4076276 2.5003567 1.5876642
-1.2177998 2.5363269 1.5567791
-1.029922 2.559804 1.5267287
-0.84659034 2.576961 1.500852
-0.66319299 2.5725329 1.4699668
-0.48598394 2.5657649 1.4449247
-0.31654361 2.5799696 1.4382468
-0.15505174 2.7186029 1.506695
0.022444386 2.7576275 1.5258939
0.20182112 2.7503238 1.5258939
0.38179901 2.7418239 1.5317371
0.55969089 2.7126498 1.5325718
0.74060732 2.6908488 1.5442581
0.91807032 2.6483629 1.550936
1.1171448 2.6511374 1.591838
1.3142742 2.6267991 1.6252273
1.5174247 2.5956295 1.6636251
4.0502334 5.9953575 4.0033846
2.0135021 2.5984104 1.8188857
4.948411 5.5926514 4.1319337
5.0747423 5.033607 3.9549701
5.3858099 4.6878018 3.9507966
4.6990414 3.5804489 3.2688189
5.0213408 3.33303 3.3347628
5.173914 2.9684744 3.3005388
5.3168101 2.6062884 3.2763314
4.7358055 1.9503552 2.8339224
6.0361786 2.0375988 3.5250821
5.3294349 1.4202724 3.0517879
4.8911033 0.96772909 2.7587962
4.9556708 0.64900738 2.7654741
5.0415921 0.32872641 2.7955246
4.9256949 0 3.08832
4.9050536 0.31982371 3.0819089
4.8564701 0.63601577 3.0709186
4.8320241 0.95603997 3.08832
4.9275494 1.3131715 3.1973088
4.6780391 1.5791394 3.0956471
4.5653801 1.8801686 3.0956471
4.4464903 2.1796594 3.1048059
4.2635736 2.4461768 3.0819089
4.8438663 3.2152271 3.6451702
4.0736585 3.1039367 3.2110469
5.1577382 4.4892888 4.2871966
3.9845791 3.9522805 3.51878
4.575645 5.1713543 4.3293266
4.4961114 5.8022003 4.6022563
1.8300675 2.7089572 2.0497215
3.7451541 6.40627 4.6526294
1.3654149 2.7290125 1.9132564
1.1554627 2.7420712 1.8656311
0.93202025 2.6886041 1.7841185
0.73728085 2.6787627 1.7419884
0.55050409 2.6681242 1.7081012
0.3743265 2.6881614 1.7016901
0.20579144 2.8044295 1.7630534
0.022707591 2.7899661 1.7493154
-0.15387827 2.6980281 1.6943631
-0.3290987 2.6822989 1.6943631
-0.49694368 2.6236272 1.6742139
-0.65820915 2.5532005 1.6531488
-0.8370713 2.5479858 1.6815408
-1.0048983 2.4976091 1.6879519
-1.1836112 2.4651217 1.7145122
-1.3687268 2.4312575 1.7493154
-1.5535384 2.3823225 1.7832026
-1.7902079 2.3895946 1.8720422
-9.2914438 10.852028 8.9572277
-9.1912432 9.4184465 8.25109
-8.3064089 7.4709678 7.0045886
-3.3215678 2.6174171 2.6514492
-3.4210327 2.3518939 2.6029079
-3.4638963 2.0630288 2.5278065
-3.5244353 1.7994041 2.481097
-3.6031911 1.5529768 2.460032
-3.6250353 1.2897828 2.4124067
-3.6801956 1.0452017 2.3986685
-3.6704223 0.78850222 2.3537908
-3.6922717 0.54481786 2.3400528
-3.7038813 0.30212039 2.3299782
-3.5730655 0.058166362 2.5224793
-3.5925958 0.29304299 2.5443532
-3.5561621 0.52473402 2.5373933
-3.6067541 0.77482468 2.6040099
-3.5676675 1.0132428 2.6179297
-3.5167418 1.2512521 2.6348326
-3.4834995 1.5013897 2.6775863
-3.4449205 1.7588078 2.730283
-3.3498087 1.9950806 2.7521572
-3.2744198 2.2511005 2.8048537
-3.2360747 2.5500481 2.9082584
-11.471926 10.318103 10.891304
-9.7403574 9.9811344 9.8443308
-9.0877037 10.614068 9.8632221
-8.3305511 11.119737 9.8075428
-7.6063237 11.664157 9.8294163
-1.4386736 2.5555034 2.0700836
-1.1961905 2.4913208 1.9507704
-1.0163114 2.5259755 1.9219363
-0.82298845 2.5051186 1.8612854
-0.6557883 2.5438101 1.8543255
-0.48888639 2.5810885 1.8543255
-0.32368639 2.6381865 1.8761996
-0.78817862 13.819548 9.7707548
0.021850366 2.6846433 1.8950908
0.19720125 2.6873665 1.9020507
1.7379285 12.480634 8.8947964
1.7222928 8.3474245 6.0163665
3.341254 12.139779 8.8878365
0.92224717 2.6604116 1.9875586
1.0983146 2.6064508 1.996507
1.3122151 2.6226838 2.0700836
1.5333958 2.6229486 2.1446543
4.0505567 5.9958363 5.1075978
4.3035374 5.5536847 4.9594507
4.4224191 4.9981799 4.7108817
4.7012515 4.6631436 4.6740932
4.0076561 3.4882588 3.7504106
4.371778 3.3310897 3.8796666
4.0370641 2.6796937 3.420311
4.6769071 2.6833224 3.8060901
4.3786764 2.1464171 3.4421849
4.4022536 1.8129879 3.3606544
4.5108871 1.5227149 3.3606544
5.4537926 1.4534131 3.9840655
4.7851124 0.94675827 3.4431791
5.7415981 0.75193441 4.0874705
5.7881951 0.3774071 4.0944304
4.7731609 0 3.776089
4.7212186 0.3078371 3.7429278
4.653645 0.60945326 3.712976
4.6916761 0.92827147 3.783577
5.4497023 1.4523231 4.4617753
4.9913445 1.6849 4.167604
5.0011706 2.0596409 4.2788544
4.213069 2.0652368 3.7119062
4.4720531 2.5657897 4.0788178
3.8258522 2.5394971 3.6327474
3.7966354 2.8928578 3.776089
3.8288326 3.3326111 4.0157046
4.7290177 4.6906848 5.2694092
4.4899607 5.0745153 5.3603349
4.1602135 5.3687267 5.3731713
4.1457319 6.1367192 5.8588214
3.4626446 5.9230232 5.4277267
1.3141273 2.6265056 2.3234179
2.8800035 6.8346424 5.8673792
2.6670344 7.6936092 6.4418154
2.1686943 7.8795176 6.4653492
0.5565756 2.6975513 2.1790066
0.37298065 2.6784964 2.1394272
0.19712302 2.6863003 2.1308694
0.021844881 2.683969 2.1233814
-0.15591291 2.7337022 2.1661701
-0.32324079 2.6345546 2.0998478
-0.48139039 2.5415132 2.0463622
-0.63729447 2.4720724 2.0196192
-0.80944961 2.4639072 2.0517106
-0.9831894 2.4436531 2.083802
-1.1746325 2.4464219 2.1469152
-6.8323812 12.136299 11.01805
-7.3194962 11.224312 10.600862
-7.6751413 10.244886 10.126979
-8.3289766 9.7279053 10.131257
-9.3654671 9.5969772 10.60835
-9.9790955 8.9754181 10.617977
-10.492017 8.2677784 10.5677
-3.2759097 2.2521248 3.144958
-3.2946818 1.9622481 3.0337079
-3.3888791 1.7301958 3.010174
-3.4383943 1.4819494 2.9620368
-3.4600127 1.231068 2.9053421
-3.5132692 0.99779332 2.8892965
-3.5390177 0.7602731 2.8636234
-3.5649333 0.52602828 2.8507867
-3.5390453 0.28867495 2.809068
-3.4316888 0.055864874 3.0341833
-3.4336569 0.28007859 3.0456028
-3.4337158 0.5066663 3.0684421
-3.440202 0.73904496 3.1106944
-3.4059508 0.96731418 3.1301079
-3.3601358 1.1955318 3.1529469
-3.3309824 1.4356548 3.206619
-3.2201595 1.6440558 3.1963413
-3.2539711 1.9380016 3.3482218
-3.1933634 2.1953757 3.4258749
-9.1231489 7.1891017 10.268489
-9.6118431 8.6451035 11.428719
-8.9739523 9.1957846 11.359059
-8.3540955 9.7572432 11.355634
-7.6976686 10.274956 11.349924
-7.1080742 10.900101 11.504088
