# .PCD v0.7 - Point Cloud Data file format
VERSION 0.7
FIELDS x y z
SIZE 4 4 4
TYPE F F F
COUNT 1 1 1
WIDTH 1586
HEIGHT 1
VIEWPOINT 0 0 0 1 0 0 0
POINTS 1586
DATA ascii
16.577225 0.26986262 8.590764
16.531084 0.53836572 8.5702591
16.565739 0.8095991 8.5939178
16.516953 1.0769531 8.5765676
16.530607 1.3483784 8.5939178
16.504955 1.6171196 8.5931292
16.477959 1.885729 8.5939178
16.443573 2.1534927 8.5931292
16.397308 2.4195256 8.588398
16.432352 2.6986835 8.6286201
16.387747 2.9660659 8.6294088
16.338791 3.2327111 8.6301975
16.359905 3.5145335 8.6704216
16.345018 3.7906744 8.6940842
16.279675 4.0558515 8.6932955
16.058537 4.2795334 8.611269
15.986751 4.5403504 8.611269
15.987964 4.8232646 8.6530695
17.75856 5.6743813 9.6600742
17.694166 5.9729199 9.6766558
15.861103 5.6433597 8.7232695
15.66022 5.8607664 8.6641121
15.452249 6.0714731 8.6025934
15.387969 6.337254 8.6230993
15.208697 6.554955 8.5812998
15.101376 6.8022633 8.5820885
14.987278 7.0465188 8.5812998
14.911596 7.3096309 8.6049595
14.823177 7.5679889 8.623888
16.061705 8.5327091 9.4240084
13.524858 7.4697938 8.0058317
13.438415 7.7101378 8.027895
13.204003 7.8640466 7.9632835
15.519153 9.5885086 9.4524279
15.362309 9.8406649 9.4532175
15.200097 10.089413 9.4532175
12.710716 8.7383718 7.9924364
15.114394 10.757295 9.6126986
14.772896 10.880799 9.5069008
14.16487 10.792967 9.2274609
15.118332 11.913345 9.9735937
15.116233 12.315757 10.103133
14.087247 11.864087 9.5432186
13.822162 12.030792 9.495059
13.624506 12.254181 9.495059
11.242164 10.447432 7.9522529
13.185447 12.659504 9.4713745
10.847568 10.759639 7.9167991
12.758949 13.074345 9.465848
10.507259 11.123601 7.9286165
12.273166 13.424244 9.4247971
11.856184 13.399757 9.2708712
9.823205 11.473104 7.8262043
9.6244888 11.618598 7.8175397
9.4046307 11.73694 7.7931213
9.1778927 11.844007 7.7639785
8.9574633 11.956548 7.741138
8.7554207 12.092146 7.7356248
8.5495958 12.221847 7.7285366
8.3240032 12.321605 7.7049098
8.1173611 12.447824 7.7001848
7.9063888 12.566723 7.6930971
7.6960635 12.685953 7.6883717
7.4831858 12.800357 7.6828594
7.273098 12.91914 7.6820717
7.0560589 13.025122 7.6757717
6.8438168 13.139596 7.6765594
6.6038766 13.198963 7.6474228
6.3855314 13.299226 7.6442728
6.1612253 13.386216 7.6356111
5.9419093 13.483338 7.6348238
5.6992307 13.525053 7.6049018
5.4749255 13.60757 7.6001778
5.2521658 13.693463 7.5993905
5.025456 13.768574 7.594666
4.785749 13.805477 7.5710454
4.5604038 13.881546 7.5710454
4.3306952 13.943779 7.5655341
4.1014514 14.006589 7.5623846
3.8741326 14.075888 7.5647469
3.6418517 14.126782 7.5592356
3.4085855 14.172371 7.552937
3.1777821 14.227458 7.5537243
2.943325 14.265392 7.5474257
2.7107377 14.311411 7.5474257
2.477174 14.35214 7.5466385
2.2415984 14.380052 7.5411277
2.0074472 14.416138 7.5419149
1.7716054 14.439363 7.5379782
1.5363417 14.466286 7.5379782
1.3002634 14.484837 7.5356164
1.0628765 14.484383 7.525382
0.82740647 14.507349 7.5293183
0.59116125 14.518895 7.5293183
0.3547965 14.528112 7.5301056
0.11817702 14.519809 7.5238075
-0.11817702 14.519809 7.5238075
-0.3555755 14.56001 7.5466385
-0.59227389 14.546221 7.5434895
-0.82939631 14.542238 7.5474257
-1.0655451 14.52075 7.5442767
-1.3012143 14.495429 7.5411277
-1.5371439 14.47384 7.5419149
-1.7723454 14.445395 7.5411277
-2.0070283 14.413128 7.5403404
-2.2423005 14.384555 7.5434895
-2.4756234 14.343157 7.5419149
-2.7084756 14.299468 7.5411277
-2.9411757 14.254976 7.5419149
-3.1724827 14.203732 7.5411277
-3.4057431 14.160552 7.5466385
-3.6354034 14.10177 7.5458512
-3.8648591 14.042193 7.5466385
-4.0929112 13.977425 7.5466385
-4.3203297 13.910404 7.5474257
-4.5599294 13.880102 7.5702581
-4.785749 13.805477 7.5710454
-5.009305 13.724323 7.5702581
-5.2363849 13.652319 7.5765567
-5.4579096 13.565278 7.5765567
-5.6803484 13.480244 7.5797062
-5.9014645 13.391561 7.5828557
-6.1186566 13.293729 7.5828557
-6.3539591 13.23347 7.6064768
-6.5698776 13.131012 7.6080513
-6.7862506 13.029073 7.6119885
-7.0191402 12.956973 7.6356111
-10.620197 18.864563 11.217381
-7.5223064 12.867274 7.7230234
-7.6960635 12.685953 7.6883717
-7.9007235 12.557717 7.6875844
-8.1040783 12.427454 7.6875844
-8.3563356 12.369465 7.7348371
-16.170767 23.116488 14.617809
-16.544889 22.850214 14.617809
-16.916462 22.580332 14.619392
-17.288311 22.310444 14.624933
-17.64439 22.020126 14.620975
-18.006321 21.737072 14.625726
-18.359737 21.443424 14.627309
-18.735699 21.174925 14.650267
-19.054169 20.841225 14.632058
-19.390877 20.52832 14.632058
-19.729916 20.21763 14.6376
-20.08567 19.922859 14.658975
-20.407293 19.593285 14.658975
-20.701126 19.23772 14.643142
-21.044458 18.927849 14.6661
-21.349758 18.582802 14.6661
-21.622522 18.210194 14.647891
-21.989502 17.915665 14.696974
-22.314203 17.583738 14.720724
-22.569506 17.196903 14.702516
-13.482885 9.9306574 8.6767321
-13.604296 9.682519 8.6522808
-13.676058 9.4020262 8.5994387
-13.820942 9.1739674 8.5954952
-13.922297 8.9182339 8.5671043
-14.052667 8.6824398 8.5592184
-14.152901 8.4291916 8.5355597
-14.288228 8.1977081 8.5355597
-14.369145 7.9360943 8.5055943
-14.497761 7.7018704 8.5063829
-14.609005 7.458643 8.4992857
-14.716175 7.2138357 8.4921885
-14.824759 6.970108 8.488246
-14.926534 6.7235074 8.4827261
-14.98089 6.4567699 8.4527626
-15.07556 6.2085943 8.4480314
-15.161873 5.9573789 8.4409351
-15.253982 5.7087336 8.4393578
-15.337713 5.4571385 8.4354153
-15.414414 5.2033572 8.4298964
-15.48982 4.9494524 8.4259539
-15.563959 4.6953506 8.4235888
-15.584165 4.4260135 8.3944159
-15.645321 4.1694131 8.3896856
-15.706684 3.9130988 8.3873196
-15.75792 3.6545169 8.3818007
-15.816805 3.3978615 8.3825893
-15.859568 3.1378944 8.3770704
-15.908543 2.879333 8.3770704
-15.94129 2.6180363 8.3707628
-15.963729 2.3555484 8.3613024
-16.00448 2.095988 8.3636675
-15.99264 1.8301891 8.3408041
-16.020311 1.569635 8.3408041
-16.033121 1.3077992 8.3352861
-16.052284 1.0466554 8.3352861
-16.053518 0.78456593 8.3281908
-16.065681 0.52320898 8.3289785
-15.956822 0.25976303 8.5477543
-15.95199 0.51950639 8.548563
-15.939913 0.77901381 8.5477543
-15.935673 1.039052 8.5534172
-15.918154 1.2984215 8.5542269
-15.905435 1.5583798 8.5598898
-15.922986 1.8222181 8.5841627
-15.891216 2.0811546 8.5841627
-15.867192 2.3413036 8.5906363
-15.823999 2.5987737 8.5890179
-15.791495 2.8581483 8.5954905
-15.744363 3.1151004 8.5963001
-15.691573 3.3709583 8.5963001
-15.646398 3.628653 8.6027727
-15.585261 3.8828483 8.6027727
-15.531673 4.1391268 8.6092463
-15.397395 4.6451015 8.6141005
-15.37587 4.9130421 8.6456585
-15.292432 5.1621804 8.6448488
-15.217769 5.4144621 8.6513224
-15.137527 5.6651506 8.6569872
-15.040497 5.909688 8.6553688
-14.954885 6.1588964 8.6626511
-14.862368 6.4056869 8.6683159
-14.767154 6.6517162 8.6747894
-14.697947 6.9104848 8.6990662
-14.593014 7.1534624 8.704731
-14.475989 7.3907318 8.7055397
-14.360445 7.628922 8.7095861
-14.24627 7.8682299 8.7168694
-14.126796 8.1050892 8.7233438
-14.002086 8.3393688 8.7290087
-13.903053 8.5900011 8.7532873
-13.809742 8.8461342 8.7840414
-13.66896 9.0730848 8.7872782
-13.533164 9.3037891 8.7961817
-13.416867 9.5491219 8.8204622
-13.268176 9.7725153 8.826128
-13.147017 10.01741 8.8528376
-13.059377 10.290874 8.9054508
-21.813007 17.771868 15.070017
-19.918827 16.775366 13.948199
-21.216118 18.46648 15.065142
-20.910473 18.807341 15.063517
-18.735912 17.988573 13.911652
-19.895336 19.734066 15.009084
-19.626579 20.111738 15.051331
-19.292454 20.424124 15.04808
-18.932892 20.708572 15.028582
-18.562151 20.978783 15.003396
-18.238937 21.302336 15.020457
-17.912039 21.623255 15.039144
-17.529251 21.876432 15.014771
-17.170847 22.158857 15.014771
-16.808802 22.436625 15.015583
-16.439596 22.704792 15.013958
-16.060898 22.959427 15.007459
-15.685909 23.219065 15.008271
-15.306724 23.472578 15.009084
-14.922634 23.718616 15.009084
-7.669054 12.641432 7.9194164
-7.4394269 12.725505 7.8951697
-7.232049 12.846225 7.895978
-7.0169621 12.952951 7.8903203
-9.8966379 19.000776 11.474707
-9.5501318 19.087553 11.431708
-6.3319063 13.187541 7.8353658
-6.1025362 13.258705 7.8175874
-5.8816576 13.346616 7.8119307
-5.6460609 13.398874 7.7876887
-5.4418612 13.525391 7.8086987
-5.2188268 13.606541 7.8054662
-4.9951105 13.685433 7.8030419
-4.7583499 13.726439 7.7812247
-4.5324111 13.796339 7.7779922
-4.3063531 13.865403 7.7763762
-4.0796723 13.932213 7.7755685
-3.8535585 14.001136 7.7779922
-3.6240222 14.057623 7.7755685
-3.3933158 14.108881 7.7723365
-3.1642029 14.166662 7.7747602
-2.9243534 14.173443 7.751328
-2.6932652 14.219165 7.751328
-2.4614637 14.261119 7.751328
-2.2290099 14.299294 7.751328
-1.9955493 14.330694 7.749712
-1.7607388 14.350796 7.7440562
-1.5272368 14.380554 7.7456722
-1.2928278 14.402005 7.7448645
-1.0582356 14.421141 7.7448645
-0.82405031 14.448503 7.751328
-0.58876336 14.460003 7.751328
-0.35320994 14.463146 7.7489042
-0.1177716 14.469996 7.7505202
0.1177716 14.469996 7.7505202
0.35328358 14.466162 7.7505202
0.58870196 14.458495 7.7505202
0.82405031 14.448503 7.751328
1.0565797 14.398574 7.7327447
1.2906699 14.377966 7.7319369
1.5246879 14.356553 7.7327447
1.7596366 14.341812 7.7392087
1.9928446 14.311271 7.7392087
2.2255247 14.276937 7.7392087
2.4594109 14.249227 7.7448645
2.6898963 14.201379 7.7416325
2.9216099 14.160146 7.7440562
3.1546664 14.123965 7.751328
3.3841438 14.070745 7.751328
3.6157372 14.025484 7.757792
3.8431501 13.963319 7.7569842
4.0733128 13.910496 7.7634482
4.3018789 13.850996 7.7682962
4.5272317 13.780573 7.769104
4.7657619 13.74782 7.7933455
4.988903 13.668427 7.7933455
5.2155852 13.598089 7.8006177
5.4356666 13.509995 7.7998099
5.6583633 13.42807 7.8046579
5.8761821 13.33419 7.8046579
6.1170454 13.290228 7.836174
6.3345184 13.192981 7.8385983
6.5531468 13.097572 7.844255
6.7689524 12.995862 7.8482957
7.0004311 12.922437 7.8717322
7.2128029 12.812038 7.8749647
7.4280038 12.705965 7.8830466
7.6393127 12.592407 7.8887043
7.8448739 12.468948 7.8903203
8.0525608 12.348454 7.895978
8.2592468 12.225749 7.9024434
8.4632053 12.09835 7.9081011
8.6846733 11.994436 7.93154
8.886899 11.862357 7.9388146
9.0852747 11.724483 7.9444728
9.3032207 11.61038 7.9687214
9.5265913 11.500417 7.99863
9.7714176 11.412618 8.0471334
11.775176 13.308203 9.5176277
12.079018 13.211887 9.5881033
12.291429 13.012427 9.5872927
12.532237 12.842029 9.6107855
10.819086 10.731387 8.1619415
11.152703 10.364295 8.154664
13.522311 12.162265 9.7412224
13.732177 11.952469 9.7509451
13.95152 11.74978 9.7695799
14.140922 11.521135 9.7695799
14.334895 11.295991 9.7752523
14.065705 10.717407 9.4714565
14.272383 10.512153 9.4941368
14.510598 10.327558 9.5394983
14.845036 10.205676 9.6488619
14.946177 9.9208679 9.6083555
15.448316 9.8957586 9.8262987
15.410444 9.5213423 9.7023325
15.495803 9.2289982 9.6602039
15.714819 9.0161991 9.7039528
16.251476 8.975708 9.9437962
15.986608 8.4928141 9.6958513
16.093088 8.2163429 9.6780272
14.918654 7.3130908 8.8989754
14.997419 7.0512872 8.8763103
15.067492 6.7870002 8.8512192
15.141273 6.5258951 8.8309841
15.248283 6.2797275 8.8326025
15.378015 6.042305 8.8495998
16.988075 6.3577104 9.7152958
17.087883 6.0798469 9.7144852
16.599932 5.6035452 9.3839808
16.602518 5.3049922 9.3353872
17.37443 5.2415352 9.7201567
15.873569 4.5082064 8.8382683
15.868918 4.229001 8.7961817
15.934185 3.9697776 8.795372
16.040852 3.7201331 8.8196526
16.174629 3.4747312 8.8609314
16.257212 3.2165699 8.8763103
16.316336 2.9531407 8.8811674
16.283207 2.6741893 8.8382683
16.27973 2.4021761 8.8139868
16.316673 2.1368732 8.8139868
16.359802 1.872207 8.8196526
16.380589 1.6049343 8.8156061
16.410566 1.3385869 8.8188429
16.478436 1.0744417 8.8447437
16.492231 0.80600667 8.8439341
16.459366 0.53603005 8.8204622
16.477997 0.26824731 8.8269367
16.35808 0 9.0512114
16.361912 0.26635751 9.0545311
16.358406 0.53274208 9.0561905
16.33708 0.79842418 9.0503807
16.32192 1.0642365 9.0503807
16.30393 1.3298887 9.0512114
16.278631 1.5949447 9.0503807
16.244553 1.859018 9.047061
16.219578 2.1241577 9.0512114
16.138338 2.3813131 9.0263128
16.160023 2.9248493 9.0868998
16.154419 3.1962323 9.1117992
16.067989 3.4518223 9.0935392
15.971684 3.7040923 9.0719595
15.871434 3.9541442 9.0503807
15.761491 4.2003717 9.0254831
15.722775 4.4653797 9.0437412
15.764331 4.7557993 9.1109695
15.920619 5.0871048 9.2479315
15.526111 5.5241699 9.1184397
15.370917 5.7524962 9.08109
15.275248 6.0019259 9.08109
15.174144 6.2491941 9.0802593
15.102098 6.5090108 9.099349
16.466536 7.4171858 9.9928808
16.748596 7.8746319 10.240489
16.185375 7.9340343 9.973772
16.015308 8.1766329 9.9496794
14.593145 7.7525434 9.1433401
14.39543 7.9506111 9.099349
14.264111 8.1838713 9.099349
15.490643 9.2259245 9.976264
15.305209 9.4563236 9.9546642
15.244087 9.7649355 10.016974
15.243262 10.118065 10.123325
14.843925 10.204912 9.9671259
14.515615 10.331128 9.8582983
14.341906 10.563358 9.8558064
14.285098 10.884574 9.9372177
13.848978 10.913085 9.7561283
13.610159 11.088702 9.713768
13.453125 11.330039 9.7320404
14.161709 12.326333 10.388415
13.33505 11.993837 9.9239254
13.196351 12.263474 9.9679565
13.051312 12.53072 10.011158
12.846687 12.742553 10.01199
12.606114 12.917731 9.9870644
12.369438 13.095014 9.9671259
12.124259 13.261372 9.9422026
11.908788 13.459209 9.9438639
11.686182 13.648985 9.9422026
11.455766 13.829298 9.9363871
11.228209 14.012759 9.9355564
9.0794373 11.71695 8.2018585
8.8578787 11.823621 8.1745052
8.6598606 11.960167 8.1703615
8.4391375 12.063944 8.1463251
8.2357855 12.191021 8.140523
8.0305347 12.314676 8.1347218
7.8042984 12.404456 8.1090298
7.5959196 12.520879 8.1032286
7.3843079 12.631222 8.0957699
7.1733232 12.741911 8.0907974
6.9649734 12.856983 8.0907974
6.7499347 12.95935 8.0849962
6.5528455 13.09697 8.1032286
6.3148122 13.151938 8.0725651
6.0779858 13.205365 8.043561
5.8622375 13.302547 8.043561
5.6408648 13.386543 8.0377607
5.420548 13.472418 8.0352745
5.1967859 13.549075 8.0294743
4.9601555 13.589665 8.0046158
4.7382998 13.668601 8.0046158
4.5109825 13.731112 7.9971581
4.2873282 13.804147 7.9979863
4.0587039 13.860606 7.9913578
3.8325577 13.924833 7.9913578
3.6027792 13.975221 7.9855576
3.3646731 13.98979 7.9615297
3.1358633 14.03978 7.9598727
2.9048047 14.078697 7.954073
2.6752615 14.124113 7.954073
2.4434814 14.156934 7.9491019
2.2124951 14.193352 7.9482732
1.9797317 14.217102 7.9424734
1.7482406 14.248929 7.9433022
1.5152889 14.268053 7.9391594
1.2833831 14.296792 7.9424734
1.0497377 14.305334 7.9366741
0.81675124 14.320526 7.9366741
0.58494949 14.366334 7.95573
0.35095856 14.370957 7.954073
0.11700871 14.376264 7.9549012
-0.11699653 14.374766 7.954073
-0.35073924 14.361977 7.9491019
-0.58440119 14.352868 7.9482732
-0.81803018 14.34295 7.9491019
-1.0518198 14.333708 7.9524159
-1.2844542 14.308723 7.9491019
-1.5170285 14.284431 7.9482732
-1.7491523 14.25636 7.9474449
-1.9809709 14.226001 7.9474449
-2.2124951 14.193352 7.9482732
-2.4432266 14.155458 7.9482732
-2.6735895 14.115286 7.9491019
-2.9026868 14.068432 7.9482732
-3.1312935 14.01932 7.9482732
-3.3678246 14.002892 7.9689865
-3.597172 13.953469 7.9731293
-3.8238156 13.89307 7.9731293
-4.0494461 13.828989 7.9731293
-4.2740035 13.761245 7.9731293
-4.4964938 13.687009 7.9714723
-4.7230949 13.62474 7.978929
-4.9447522 13.547463 7.9797578
-5.1801605 13.505731 8.003787
-5.3993068 13.419623 8.003787
-5.617022 13.329962 8.003787
-5.8380804 13.24773 8.010416
-6.0510616 13.146869 8.0079298
-6.2707329 13.060134 8.0162163
-6.4831514 12.957674 8.017045
-6.7111912 12.884965 8.0385895
-6.9243102 12.781921 8.043561
-10.460022 18.580046 11.797868
-10.778516 18.437181 11.817001
-7.6122341 12.547771 8.1206322
-7.815465 12.422205 8.1206322
-8.0174437 12.294601 8.1214609
-8.2852592 12.264255 8.1894255
-15.96952 22.8288 15.415425
-16.33987 22.56706 15.416258
-16.680655 22.265572 15.393765
-17.046394 21.998253 15.398764
-17.428562 21.750774 15.42209
-17.76012 21.439859 15.404595
-18.105764 21.146795 15.403762
-18.477503 20.883114 15.428755
-18.814968 20.57959 15.428755
-19.127804 20.249817 15.412926
-19.48432 19.965963 15.436253
-19.805655 19.645113 15.435419
-20.075006 19.274252 15.398764
-20.442322 18.997211 15.441251
-20.757786 18.67001 15.447916
-21.090727 18.357342 15.471242
-21.389038 18.013556 15.472909
-21.688747 17.67063 15.479573
-20.248377 15.955854 14.264285
-20.506605 15.625071 14.265118
-22.567892 16.622108 15.508732
-13.41645 9.5488243 9.1117992
-13.518182 9.2934895 9.0769396
-13.636418 9.0514851 9.0561905
-13.771838 8.8218536 9.049551
-13.866394 8.5673513 9.0188437
-13.994987 8.3351412 9.0130348
-14.119698 8.101016 9.007225
-14.208987 7.8476386 8.9814987
-14.295106 7.5942111 8.9566031
-14.407473 7.3557506 8.9507942
-14.515866 7.1156449 8.9449854
-14.620264 6.8739614 8.9391766
-14.719275 6.6301498 8.932538
-14.825244 6.3896866 8.932538
-14.910645 6.140677 8.9225807
-15.004433 5.8955178 8.9200907
-15.057675 5.6352668 8.8960276
-15.136103 5.3854055 8.889389
-15.210389 5.1344852 8.8827505
-15.281948 4.8830309 8.8769426
-15.357969 4.6332073 8.8761129
-15.421251 4.3797445 8.8703051
-15.490498 4.1281533 8.8703051
-15.545453 3.8729305 8.8644962
-15.56261 3.6092215 8.8396044
-15.607567 3.3529115 8.8329668
-15.648307 3.0960953 8.8263292
-15.693677 2.8404441 8.8246698
-15.728954 2.5831642 8.8196917
-15.794293 2.0684612 8.8138838
-15.82587 1.8111041 8.8138838
-15.842806 1.5522435 8.8080769
-15.865973 1.2941651 8.8080769
-15.881943 1.0355487 8.8064175
-15.889207 0.77653569 8.802269
-15.899741 0.5178048 8.802269
-15.738248 0.25620481 8.9923801
-15.778094 0.51384318 9.0187321
-15.76764 0.77059454 9.0187321
-15.754494 1.0272386 9.0195818
-15.735686 1.2835377 9.0195818
-15.723075 1.5405126 9.0255327
-15.695917 1.7962325 9.0255327
-15.674929 2.0528288 9.0314837
-15.637966 2.3074799 9.030633
-15.61155 2.5638831 9.0382843
-15.56775 2.8176522 9.0382843
-15.530043 3.0726962 9.0442343
-15.477971 3.3250711 9.0442343
-15.433395 3.5792544 9.0510359
-15.414966 3.8404214 9.0756893
-15.360478 4.093504 9.0816402
-15.29754 4.3446097 9.085041
-15.231919 4.5951805 9.0892916
-15.159358 4.8438601 9.0918417
-15.084146 5.0918703 9.0952425
-15.00768 5.3397131 9.1003437
-14.929927 5.5874577 9.1071444
-14.782804 6.0880284 9.1335001
-14.691318 6.331964 9.139452
-14.595805 6.5745339 9.1454039
-14.496285 6.8156705 9.1513548
-14.394117 7.0559635 9.1581564
-14.281337 7.2913518 9.1607075
-14.167336 7.5263338 9.164959
-14.053375 7.761694 9.1717606
-13.963903 8.011631 9.1972685
-13.8406 8.2431908 9.2032204
-13.751441 8.4963274 9.2346811
-13.611324 8.7190332 9.2346811
-13.513486 8.9698858 9.2661428
-13.375505 9.1954021 9.2729464
-13.260441 9.4377899 9.2984571
-13.113456 9.6585579 9.30441
-13.025548 9.9248562 9.3554344
-12.904368 10.168727 9.3860512
-21.591152 17.591114 15.910605
-19.601702 16.508287 14.640668
-20.936127 18.222776 15.856829
-20.638962 18.563137 15.858537
-20.302338 18.867123 15.833782
-20.015181 19.216814 15.851707
-19.694435 19.534794 15.84744
-19.317509 19.795029 15.801347
-18.994799 20.109009 15.803054
-18.344053 20.732292 15.815003
-17.981815 21.002028 15.795371
-17.658552 21.317247 15.81415
-17.281204 21.566872 15.788543
-16.92238 21.838215 15.783422
-16.562887 22.108376 15.781714
-16.200836 22.37504 15.781714
-15.834493 22.635775 15.781714
-15.464789 22.891752 15.782568
-15.089316 23.139189 15.781714
-14.728186 23.409552 15.800493
-14.345973 23.647459 15.801347
-7.3728213 12.611573 8.345808
-7.1476073 12.696233 8.3237295
-6.9385886 12.808278 8.322031
-6.7278161 12.916883 8.3203325
-6.4927349 12.976829 8.2897644
-6.2439837 13.004422 8.2413664
-6.016571 13.071933 8.2209902
-5.8024035 13.166773 8.2201414
-5.5832801 13.249887 8.2141981
-5.3663177 13.337632 8.2133493
-5.1479783 13.421825 8.2124996
-4.9257727 13.495464 8.207406
-4.7054548 13.573853 8.207406
-4.4843545 13.650057 8.2082548
-4.2580523 13.709887 8.2014627
-4.0247283 13.744577 8.1819372
-3.7973204 13.796805 8.1751451
-3.572618 13.858225 8.1759939
-3.346575 13.91454 8.1759939
-3.1196451 13.967169 8.1759939
-2.8915884 14.014642 8.1751451
-2.6633661 14.061312 8.1759939
-2.4341378 14.1028 8.1759939
-2.203578 14.136147 8.1734476
-1.9736024 14.173086 8.1751451
-1.7426462 14.203333 8.1751451
-1.5066773 14.186964 8.150527
-1.2755569 14.209609 8.150527
-1.0440987 14.228489 8.150527
-0.8123638 14.243598 8.150527
-0.5803532 14.253449 8.1496773
-0.34830973 14.262493 8.150527
-0.11611349 14.266273 8.150527
0.11611349 14.266273 8.150527
0.34841853 14.26695 8.1530733
0.58083683 14.265327 8.1564693
0.81287146 14.2525 8.1556196
1.0448599 14.238862 8.1564693
1.276487 14.219969 8.1564693
1.5090312 14.209128 8.1632605
1.7401127 14.182684 8.1632605
1.9707332 14.152481 8.1632605
2.2008317 14.118528 8.1632605
2.432116 14.091085 8.1692028
2.6611538 14.049631 8.1692028
2.8915884 14.014642 8.1751451
3.1196451 13.967169 8.1759939
3.349355 13.926099 8.182786
3.5752149 13.868298 8.1819372
3.8032353 13.818296 8.1878796
4.0272336 13.753134 8.1870308
4.2545266 13.698533 8.1946716
4.477397 13.62888 8.1955204
4.7020478 13.564024 8.2014627
4.9216967 13.484297 8.200614
5.1570258 13.445414 8.2269335
5.3718648 13.351419 8.221839
5.5959759 13.280016 8.2328758
5.8131909 13.191252 8.2354231
6.0296197 13.100283 8.2388191
6.2472 13.011122 8.2456121
6.4621439 12.915687 8.2507057
6.713397 12.8892 8.3025007
6.9265528 12.78606 8.3075962
7.1352115 12.674213 8.3092937
7.3458152 12.565377 8.315238
7.5555358 12.454311 8.322031
7.762794 12.338488 8.3279753
7.9625988 12.210498 8.3279753
8.1652861 12.086663 8.3330708
8.3677549 11.9619 8.3398638
8.5883741 11.861438 8.366189
8.789217 11.73197 8.3746815
9.0035982 11.619081 8.3976116
9.2259235 11.513914 8.4290352
9.4396162 11.395421 8.4536667
9.6277161 11.244781 8.4570637
11.86013 13.404218 10.225003
12.106901 13.242386 10.250541
12.347445 13.071731 10.272673
12.532561 12.84236 10.251391
12.710315 12.607286 10.227557
12.947159 12.430721 10.253945
13.152144 12.222391 10.257351
13.291738 11.954882 10.213086
13.400277 11.663585 10.149247
13.554163 11.415132 10.123713
13.688505 11.152534 10.087113
13.70909 10.802853 9.9713688
13.975534 10.648702 10.03775
14.286159 10.522299 10.136479
14.735956 10.48795 10.333115
14.758597 10.146251 10.231813
14.826206 9.8412342 10.16627
15.052176 9.6420031 10.212235
15.4353 9.5367002 10.365465
16.013599 9.5373869 10.648143
15.52428 8.9068794 10.225003
15.633288 8.6342821 10.202871
14.373699 7.6359634 9.2984571
14.496085 7.4009919 9.2984571
14.614631 7.1640592 9.2984571
14.756245 6.9378948 9.315465
14.944581 6.7316365 9.3639393
16.387041 7.0628219 10.19436
16.458502 6.7781334 10.168824
15.22211 5.9810472 9.3435287
15.244952 5.7053542 9.2993078
15.334395 5.4559579 9.2984571
15.41694 5.2042093 9.2959061
15.50386 4.9539385 9.2984571
15.613792 4.7103844 9.3171654
15.762856 4.4767632 9.3613873
15.835075 4.2199817 9.3622379
15.856888 3.95052 9.3358746
15.842237 3.6740713 9.2908039
15.898485 3.4154084 9.2899532
15.957812 3.1573327 9.293355
15.998302 2.8955789 9.2882528
16.049189 2.6357565 9.2916536
16.123835 2.3791728 9.3112125
16.158947 2.1162174 9.3103628
16.148365 1.8480104 9.2857018
16.19112 1.5863706 9.2942047
16.179192 1.319714 9.2737961
16.198528 1.056191 9.2737961
16.213575 0.7923882 9.2737961
16.190107 0.52726114 9.2542381
16.196545 0.2636655 9.2542381
16.082594 0 9.4815922
16.080463 0.26177579 9.4815922
16.072596 0.52343416 9.4807224
16.095871 0.78663576 9.5007458
16.123669 1.0513098 9.5259943
16.138273 1.3163763 9.5460186
16.11471 1.578884 9.5460186
16.054596 1.8372794 9.526865
15.937639 2.0872343 9.4763689
15.897172 2.3457274 9.4737577
15.900599 2.6113536 9.4998751
15.887957 2.8756073 9.5190287
15.840495 3.1341207 9.5198994
15.829253 3.4005356 9.5451479
15.806334 3.6657448 9.5660439
15.571616 4.1497712 9.5007458
15.467915 4.3929973 9.4798517
15.395775 4.6446128 9.4807224
15.318135 4.8945937 9.4807224
15.267218 5.1536689 9.4998751
15.223048 5.4163408 9.5259943
15.278102 5.7177606 9.6174154
15.335602 6.02564 9.7140722
15.306515 6.3037086 9.7593565
14.889914 6.4175591 9.5590792
14.682497 6.6135836 9.4937811
14.572903 6.8516936 9.4937811
14.499228 7.1074886 9.5198994
14.381618 7.3425503 9.5198994
14.221075 7.5548825 9.4937811
15.553837 8.5904007 10.475484
15.269634 8.7607794 10.378751
15.16184 9.0300961 10.404022
15.717193 9.7108669 10.892138
14.97066 9.5897856 10.481584
14.780562 9.8109369 10.458925
14.640839 10.065294 10.474612
14.602733 10.393132 10.566995
14.422107 10.62243 10.560022
14.18615 10.80918 10.514702
13.947953 10.991078 10.469383
13.766058 11.215719 10.468512
13.607682 11.460205 10.488556
13.352442 11.621948 10.436267
13.128531 11.80809 10.410123
12.910771 11.998082 10.390951
12.649796 12.14522 10.338666
12.506051 12.404678 10.384851
12.247771 12.55053 10.338666
12.033744 12.739628 10.331695
11.825785 12.934904 10.332566
11.693994 13.216451 10.404022
11.528273 13.464553 10.450211
11.306641 13.649276 10.449339
11.055244 13.796899 10.423195
10.897116 14.062652 10.488556
8.8029375 11.750284 8.6558599
8.5785074 11.847811 8.6236858
8.3591623 11.949617 8.5976009
8.1387844 12.047434 8.571516
7.9359713 12.169665 8.5654297
7.7093487 12.253539 8.5349998
7.5065823 12.373618 8.5323915
7.2989731 12.485251 8.5263062
7.0897202 12.593408 8.5202198
6.8837986 12.707138 8.5202198
6.6549358 12.776959 8.4932699
6.4605999 12.912601 8.5123959
6.2438216 13.004086 8.5045719
6.0276284 13.095956 8.4993553
5.809505 13.182887 8.4932699
5.5947304 13.277061 8.4941397
5.3448563 13.28429 8.4419804
5.1236959 13.358516 8.4350271
4.9020424 13.430449 8.4289417
4.682303 13.507067 8.4280729
4.4586077 13.571686 8.4219875
4.2371111 13.64246 8.4219875
4.0115914 13.699716 8.4159031
3.7880704 13.763197 8.4159031
3.5528719 13.78163 8.3906965
3.3246307 13.823299 8.3820047
3.0995102 13.877022 8.3828735
2.8708405 13.914083 8.3759203
2.6442556 13.960417 8.3767891
2.4166722 14.001608 8.3767891
2.1866317 14.027436 8.3698359
1.9582213 14.06263 8.3707056
1.7270901 14.076545 8.3611441
1.4982051 14.107189 8.3637524
1.2685162 14.131175 8.3646212
1.0375803 14.139658 8.3585367
0.80720818 14.153202 8.3576679
0.57673007 14.164466 8.3576679
0.3460632 14.170503 8.3567991
0.1152806 14.163939 8.3507147
-0.11529259 14.165414 8.3515844
-0.34584725 14.16166 8.3515844
-0.57631028 14.154155 8.3515844
-0.80662054 14.1429 8.3515844
-1.0367172 14.127896 8.3515844
-1.2661437 14.104745 8.3489771
-1.4957141 14.083734 8.3498459
-1.7249358 14.058986 8.3507147
-1.9580181 14.06117 8.3698359
-2.1816363 13.99539 8.3507147
-2.414917 13.991439 8.3707056
-2.6442556 13.960417 8.3767891
-2.8711386 13.915527 8.3767891
-3.0972607 13.86695 8.3767891
-3.3225622 13.814699 8.3767891
-3.5469835 13.758788 8.3767891
-3.7712471 13.702074 8.3785276
-3.9933615 13.637459 8.3776588
-4.2139344 13.567837 8.3759203
-4.4480238 13.539469 8.4019957
-4.6682987 13.466668 8.4028654
-4.8868766 13.388899 8.4028654
-5.1083837 13.318594 8.4098186
-5.3239431 13.232312 8.4089499
-5.5391922 13.145261 8.4098186
-5.7542071 13.057405 8.412426
-5.9678288 12.966033 8.4150343
-6.1780858 12.867177 8.4150343
-6.3919835 12.77546 8.4219875
-6.5990825 12.669725 8.4219875
-6.8416557 12.629345 8.4680595
-7.068018 12.554858 8.4941397
-13.854921 23.699522 16.184647
-14.238842 23.470867 16.184647
-7.7423325 12.305964 8.571516
-14.995265 22.994961 16.184647
-15.368396 22.749065 16.18552
-15.738345 22.498331 16.187267
-16.098988 22.234375 16.183773
-16.4401 21.944475 16.165421
-16.819624 21.705608 16.189016
-17.173479 21.43243 16.191637
-17.521004 21.151201 16.192511
-17.840786 20.837313 16.172411
-18.203131 20.573021 16.195133
-18.535585 20.274004 16.195133
-18.84379 19.949141 16.17853
-19.171181 19.645082 16.182898
-19.542076 19.383671 16.227468
-19.834679 19.04351 16.210863
-20.142021 18.71814 16.210863
-20.479296 18.419529 16.238829
-20.748444 18.059418 16.21698
-21.039648 17.719305 16.21698
-21.366648 17.408201 16.248442
-21.647169 17.058111 16.248442
-21.957327 16.730453 16.27466
-13.134764 9.6742525 9.6174154
-13.24958 9.4300594 9.5878115
-13.35994 9.184701 9.5582085
-13.500286 8.9611244 9.5529842
-13.605808 8.7154999 9.5259943
-13.737073 8.4874506 9.5198994
-13.83534 8.2400589 9.4937811
-13.948418 8.0027466 9.4807224
-14.038052 7.753231 9.4546051
-14.151958 7.5181646 9.4476404
-14.235634 7.2680178 9.4232655
-14.300342 7.0099955 9.3893156
-14.413885 6.7769289 9.3901854
-14.511514 6.5365653 9.3832216
-14.603783 6.2942367 9.3753872
-14.694742 6.0517616 9.3692942
-14.792674 5.812314 9.3701649
-14.874259 5.5666242 9.3632011
-14.953159 5.3203144 9.3571081
-15.027985 5.0729122 9.3510141
-15.064967 4.8136992 9.3240309
-15.138497 4.5669971 9.3222904
-15.202307 4.3175631 9.3170681
-15.260584 4.0668821 9.3109751
-15.326191 3.8183045 9.3118458
-15.374805 3.5656664 9.304882
-15.420703 3.3127685 9.298789
-15.469686 3.0607543 9.2970486
-15.508739 2.8069715 9.2918262
-15.546547 2.5532076 9.2883444
-15.549533 2.2944312 9.2665854
-15.571646 2.0393026 9.2587528
-15.604243 1.7857412 9.2596226
-15.620957 1.5305073 9.2535305
-15.636443 1.2754427 9.2491789
-15.656605 1.020856 9.2500486
-15.66525 0.76559049 9.2465677
-15.675635 0.51050639 9.2465677
-15.542415 0.25301683 9.4528036
-15.537701 0.50601429 9.4536943
-15.528868 0.75892532 9.4545851
-15.524686 1.0122545 9.4608173
-15.516368 1.2656484 9.4670506
-15.492254 1.5178972 9.4661598
-15.475678 1.7710284 9.472393
-15.444801 2.0226908 9.472393
-15.42142 2.2755272 9.479516
-15.382339 2.5262396 9.479516
-15.340622 2.7765436 9.4804068
-15.33649 3.0344007 9.5071201
-15.293656 3.2854755 9.5124636
-15.246712 3.5359595 9.5178061
-15.188559 3.7840152 9.5186968
-15.127784 4.0314918 9.5204773
-15.068611 4.2795925 9.5258207
-15.006769 4.527257 9.5320539
-14.936671 4.7727051 9.5356159
-14.863944 5.0175381 9.5400686
-14.820315 5.2730489 9.5658932
-14.742124 5.5171728 9.5721273
-14.651731 5.7569346 9.5730181
-14.566916 5.9991188 9.580142
-14.476753 6.2394867 9.5863762
-14.371941 6.4736962 9.5854855
-14.273942 6.711132 9.5917196
-14.174648 6.9483809 9.5997343
-14.068803 7.1828418 9.6059685
-13.961663 7.4170713 9.6139832
-13.914725 7.6851177 9.6665297
-13.787792 7.9105892 9.6665297
-13.666014 8.1392107 9.6727648
-13.577824 8.3890581 9.705719
-13.449343 8.6152725 9.7128448
-13.315873 8.8387156 9.719079
-13.206451 9.0791807 9.745801
-13.093915 9.3192682 9.7734137
-12.957003 9.5433245 9.7858849
-12.833738 9.7787066 9.811717
-12.71084 10.016225 9.841114
-12.560886 10.233821 9.8526945
-20.95373 17.646946 16.659128
-20.628225 17.954781 16.630518
-20.357294 18.309797 16.650188
-19.994102 18.580677 16.598331
-19.709167 18.923006 16.615318
-19.395416 19.238199 16.612637
-19.02323 19.493475 16.563461
-18.702406 19.799465 16.562569
-18.423286 20.151175 16.603695
-18.070438 20.423054 16.583132
-17.70789 20.682093 16.557203
-17.390474 20.993626 16.577766
-17.046457 21.273909 16.577766
-16.670008 21.512527 16.550051
-16.342323 21.813961 16.575085
-15.979919 22.069929 16.569721
-15.616042 22.323496 16.567038
-15.249792 22.573502 16.566145
-14.883555 22.823658 16.569721
-14.485813 23.024317 16.542006
-14.12743 23.28722 16.563461
-13.745771 23.512817 16.562569
-13.361955 23.734722 16.563461
-12.973855 23.94907 16.563461
-12.581638 24.155767 16.562569
-6.3981562 12.787797 8.6954727
-6.1372547 12.782137 8.6225452
-5.9283872 12.88034 8.6225452
-5.7138209 12.965762 8.6163206
-5.5020208 13.057048 8.6163206
-5.2871251 13.140804 8.6136522
-5.0699139 13.218295 8.6092062
-4.8545899 13.30044 8.610096
-4.6374559 13.377696 8.610096
-4.415442 13.440293 8.6029816
-4.1960902 13.510383 8.6029816
-3.9752152 13.575489 8.6020918
-3.7541089 13.639805 8.6029816
-3.5210106 13.658039 8.5771933
-3.2978907 13.712119 8.5763035
-3.0729871 13.758274 8.5727463
-2.8498192 13.812199 8.5763035
-2.624893 13.858191 8.5771933
-2.3974838 13.890435 8.5718575
-2.1721981 13.934843 8.5763035
-1.9436817 13.958216 8.5700788
-1.7164049 13.989455 8.5709686
-1.4884717 14.015539 8.5709686
-1.2600133 14.036454 8.5700788
-1.0289143 14.021563 8.5496273
-0.80079931 14.040832 8.5522947
-0.57203215 14.049085 8.5505161
-0.34327993 14.056534 8.5505161
-0.11443675 14.06026 8.5505161
0.11443675 14.06026 8.5505161
0.34324422 14.055073 8.5496273
0.57232958 14.05639 8.5549622
0.80121559 14.048131 8.5567408
1.0292354 14.025937 8.5522947
1.2580523 14.014608 8.5567408
1.4860009 13.992274 8.5567408
1.7148023 13.976393 8.5629654
1.9420683 13.94663 8.5629654
2.1681442 13.908836 8.560298
2.3969862 13.887553 8.5700788
2.622716 13.846698 8.5700788
2.8501146 13.81363 8.5771933
3.0742621 13.763982 8.5763035
3.2989166 13.716384 8.5789709
3.5232008 13.666534 8.5825281
3.7451837 13.607377 8.5825281
3.9694619 13.555841 8.5896425
4.1930537 13.500607 8.596756
4.4254832 13.470859 8.6225452
4.6446409 13.398422 8.623435
4.8636155 13.325168 8.6261024
5.0814352 13.248334 8.6287708
5.2964048 13.163868 8.6287708
5.514514 13.086697 8.6358852
5.7621818 13.075501 8.6892471
5.978528 12.989279 8.6954727
6.1942267 12.900793 8.7025881
6.38834 12.768177 8.6821318
6.5959964 12.6638 8.6830215
6.8270273 12.602343 8.71593
7.0154657 12.46151 8.6963625
7.2395167 12.383549 8.7230453
7.4454346 12.272824 8.7292719
7.643434 12.148771 8.7283821
7.8425632 12.026426 8.7310505
8.0659361 11.939601 8.7621832
8.2659159 11.816319 8.7692995
8.4828911 11.715755 8.7959852
8.704916 11.619444 8.8289003
8.9206705 11.512063 8.8564787
9.1599312 11.431556 8.9080801
11.221086 13.545995 10.696692
11.41148 13.328144 10.669945
11.605536 13.116478 10.650331
11.786829 12.892294 10.622692
11.921626 12.620934 10.557612
12.124454 12.424164 10.556721
12.324034 12.224136 10.555829
12.521373 12.021919 10.555829
12.806676 11.901345 10.631608
13.0314 11.720728 10.658355
13.195016 11.484924 10.637849
13.404878 11.289406 10.657463
13.620958 11.097502 10.68421
13.853913 10.916974 10.726115
14.10558 10.74779 10.784072
14.191291 10.452424 10.718091
14.323709 10.194544 10.691343
14.497413 9.966691 10.698476
14.820195 9.837244 10.817064
14.857354 9.5172052 10.729682
14.940448 9.2309551 10.679752
15.095018 8.9902983 10.68421
15.409772 8.8411818 10.803689
15.330882 8.4672623 10.650331
15.369569 8.1650152 10.583466
14.40928 7.3566732 9.8384418
14.412684 7.0650654 9.7609434
14.463473 6.8002434 9.719079
14.572244 6.563921 9.719079
14.679845 6.3270192 9.7208605
14.778175 6.086122 9.719079
15.334772 6.0253139 10.019297
16.398556 6.137085 10.647655
16.485226 5.8654218 10.640523
15.445418 5.2138228 9.9132738
15.267302 4.8783512 9.7466917
15.271766 4.6072016 9.7003746
15.343325 4.3576131 9.6994839
15.485817 4.1269059 9.745801
14.493939 3.6109607 9.0833778
14.567903 3.3785326 9.0940571
14.579472 3.1320498 9.0682487
15.754567 3.1171196 9.7662878
15.803218 2.86027 9.7662878
15.84768 2.6026628 9.7662878
15.887944 2.3443658 9.7662878
15.886238 2.0805025 9.7431288
15.890348 1.818483 9.7262049
15.878485 1.5557393 9.7021561
15.909002 1.297675 9.7066097
15.960172 1.0406494 9.7262049
16.018887 0.78287339 9.7529268
16.029507 0.52203089 9.7529268
16.041739 0.26114538 9.7564898
15.95849 0 10.00568
15.921521 0.25918835 9.9838238
15.916645 0.51835531 9.9847345
15.815972 1.0312471 9.9373808
15.752217 1.2848862 9.909152
15.729217 1.5411143 9.909152
15.703491 1.7970991 9.9100628
15.734083 2.060576 9.9492197
15.774613 2.3276432 9.9974842
15.80917 2.5963383 10.044841
17.346489 3.139591 11.052633
17.293087 3.4215233 11.052633
16.186306 3.4772396 10.380053
15.459587 3.5853288 9.9501295
15.400591 3.8368402 9.9510403
14.340059 3.8215666 9.3047476
14.308065 4.063592 9.325675
14.208071 4.286305 9.3047476
14.172362 4.5284858 9.3284044
15.058324 5.0831537 9.9646997
14.901067 5.3017802 9.9164371
14.77199 5.5283504 9.8891191
14.680049 5.7680612 9.8891191
14.624504 6.0228353 9.9164371
14.525867 6.2606549 9.9173479
14.451172 6.5093851 9.9373808
14.344619 6.7443619 9.9382915
14.231636 6.976316 9.9373808
14.153711 7.2261925 9.9637899
13.995736 7.4351721 9.93647
13.87286 7.6619954 9.93647
13.709775 7.865828 9.9100628
13.617362 8.1102352 9.9373808
14.986883 9.2596455 11.045341
14.705629 9.4200144 10.949623
14.42438 9.5745134 10.854826
14.508634 9.9744053 11.038959
14.24841 10.140952 10.965119
13.739674 10.119792 10.698975
13.718819 10.453096 10.81381
13.699866 10.795585 10.93595
13.513314 11.0098 10.928658
13.33343 11.229234 10.929569
13.148886 11.444774 10.929569
12.98572 11.679643 10.950535
12.785371 11.881546 10.943242
12.590281 12.088078 10.943242
12.391856 12.291409 10.943242
12.162732 12.463389 10.918631
11.986208 12.689303 10.944154
11.747665 12.849458 10.915896
11.535995 13.037884 10.914985
11.29483 13.191901 10.888551
11.105505 13.406467 10.914985
10.876726 13.57411 10.905869
10.657902 13.753948 10.909515
10.457896 13.959347 10.93595
10.248906 14.154805 10.956916
8.2580156 11.805026 9.0327463
8.0834494 11.965525 9.0536661
7.8400741 12.022609 8.999095
7.6139917 12.101975 8.9645367
7.4167519 12.225545 8.9654455
7.1889577 12.297065 8.9308891
6.9828658 12.403604 8.9245234
6.7800479 12.51562 8.9245234
6.5560036 12.587017 8.8981524
6.3431182 12.677794 8.8881502
6.1327834 12.772824 8.883604
5.9246745 12.872273 8.8845129
5.7096891 12.956387 8.8772383
5.4935369 13.036915 8.8699646
5.2930584 13.155551 8.8908777
5.0896516 13.269754 8.9108829
4.8575706 13.308606 8.8826942
4.6127534 13.306437 8.829957
4.3955541 13.379755 8.829957
4.1750393 13.442605 8.8254108
3.9528289 13.499039 8.819047
3.7314274 13.557396 8.8163195
3.5095358 13.613528 8.8145008
3.2854495 13.66039 8.8090458
3.0531816 13.669601 8.7817707
2.8302777 13.717487 8.7817707
2.6044648 13.75034 8.774498
2.3805528 13.79234 8.7754068
2.1541765 13.819233 8.769043
1.9285561 13.849593 8.7672243
1.7018118 13.870514 8.7617702
1.4758165 13.896377 8.7617702
1.2494301 13.918557 8.7617702
1.0222883 13.931266 8.7581339
0.79514647 13.941717 8.7554064
0.56793529 13.948467 8.7526789
0.34085679 13.957313 8.7535877
0.11355816 13.952312 8.7481337
-0.11355816 13.952312 8.7481337
-0.3407506 13.952964 8.7508602
-0.56764036 13.941223 8.7481337
-0.79448593 13.930137 8.7481337
-1.021121 13.915359 8.7481337
-1.2474855 13.896895 8.7481337
-1.4724476 13.864656 8.7417698
-1.7032244 13.882028 8.769043
-1.928956 13.852466 8.769043
-2.1541765 13.819233 8.769043
-2.3783331 13.779481 8.7672243
-2.602576 13.740368 8.7681341
-2.8261757 13.697605 8.769043
-3.0484405 13.648375 8.7681341
-3.2705297 13.598356 8.769043
-3.4910746 13.541917 8.7681341
-3.7114182 13.484696 8.769043
-3.9410112 13.458681 8.7926807
-4.1608458 13.396905 8.7954082
-4.378808 13.328782 8.7963171
-4.6103787 13.299586 8.8254108
-4.8267422 13.224143 8.8263206
-5.0413513 13.143826 8.8263206
-5.2584143 13.069445 8.8326855
-5.4558077 12.947378 8.8090458
-5.6658287 12.856858 8.8090458
-5.8743491 12.762933 8.8090458
-6.0857062 12.674776 8.8154097
-6.2918553 12.575337 8.8163195
-6.5352349 12.547143 8.8699646
-6.7365265 12.435282 8.8672361
-6.9985194 12.431409 8.9445295
-13.63841 23.32917 16.943085
-14.01255 23.097855 16.938515
-14.38588 22.865479 16.937601
-14.760137 22.634398 16.942171
-15.12252 22.385109 16.937601
-15.488221 22.140772 16.941257
-15.846554 21.885738 16.941257
-16.201563 21.626072 16.942171
-16.557673 21.367561 16.94857
-16.93154 21.130491 16.976906
-17.243475 20.81617 16.947655
-17.578119 20.530527 16.945827
-17.915762 20.24824 16.951311
-18.245918 19.95717 16.954054
-18.570347 19.659658 16.955883
-18.918432 19.386087 16.983305
-19.206631 19.050943 16.961367
-19.491041 18.713581 16.941257
-19.855 18.451408 16.994274
-20.147284 18.120911 16.989702
-20.450563 17.800144 16.998844
-20.769926 17.492149 17.025352
-21.024767 17.12966 17.003414
-21.334009 16.811338 17.029922
-21.612938 16.468044 17.036322
-21.880472 16.115799 17.038149
-22.173147 15.781187 17.063744
-13.185295 9.0646362 10.032091
-13.294787 8.8247204 10.004769
-13.425658 8.6001005 9.9965734
-13.518145 8.3521852 9.9628792
-13.649806 8.1295586 9.9610577
-13.73749 7.8817291 9.9300957
-13.853789 7.6514626 9.9228115
-13.939301 7.4051919 9.8964043
-14.047642 7.1720381 9.8891191
-14.153391 6.9379601 9.8827457
-14.223702 6.6875114 9.8545189
-14.290948 6.4372139 9.8272028
-14.384498 6.1997247 9.8208294
-14.474106 5.960896 9.814456
-14.559752 5.7207947 9.8080826
-14.64006 5.4789762 9.8007984
-14.727302 5.2399549 9.8007984
-14.792755 4.9935069 9.7889624
-14.869308 4.7511802 9.7871418
-14.944673 4.5085239 9.7871418
-15.004903 4.2614989 9.7798576
-15.031589 4.005856 9.7534552
-15.08212 3.7574975 9.7452612
-15.142696 3.5118368 9.746172
-15.190754 3.2633693 9.7416201
-15.22904 3.0131412 9.7334261
-15.276067 2.7648594 9.7334261
-15.307584 2.5139627 9.7261429
-15.346476 2.2644687 9.7261429
-15.371223 2.0130548 9.7197704
-15.397626 1.762096 9.7170391
-15.415597 1.5103866 9.7115774
-15.397618 1.2559621 9.6860867
-15.414573 1.0050747 9.6851768
-15.42889 0.75403917 9.6851768
-15.42751 0.50242573 9.6778936
-15.298596 0.24904768 9.8868923
-15.295393 0.49812308 9.888752
-15.283821 0.74694937 9.8878222
-15.271074 0.99571824 9.888752
-15.262886 1.2449722 9.8952627
-15.239167 1.4931004 9.8943329
-15.265759 1.7470052 9.9287472
-15.238154 1.9956278 9.9306068
-15.213621 2.2448652 9.9371176
-15.175066 2.4921994 9.9371176
-15.131074 2.7386167 9.9361877
-15.094378 2.9864976 9.9426985
-15.053618 3.2339089 9.9492102
-15.000388 3.478833 9.95014
-14.943172 3.7228808 9.9510698
-14.888942 3.9678411 9.9566507
-14.833463 4.2128086 9.9640923
-14.804271 4.466167 9.9919977
-14.728243 4.7061057 9.9910679
-14.660602 4.9488969 9.9985094
-14.590313 5.1912146 10.006882
-14.502535 5.4275079 10.005951
-14.421649 5.6665316 10.012463
-14.327505 5.9005213 10.012463
-14.24014 6.1375065 10.019904
-14.147542 6.3726182 10.026416
-14.051061 6.6063409 10.032928
-13.942961 6.8348079 10.033858
-13.876022 7.0844178 10.067348
-13.799557 7.3309531 10.097117
-13.687225 7.5594692 10.103629
-13.571109 7.7862697 10.110142
-13.479684 8.0282364 10.138052
-13.392544 8.2745829 10.172476
-13.229411 8.47439 10.152008
-13.135306 8.7188606 10.187363
-12.99165 8.931509 10.187363
-12.886784 9.1718473 10.220858
-12.770569 9.4060087 10.248772
-12.654718 9.6423016 10.280409
-21.165213 16.678326 17.412403
-20.892057 17.021536 17.413336
-20.603386 17.351891 17.405865
-20.308409 17.676413 17.397459
-19.986837 17.976603 17.370377
-19.692644 18.300529 17.371311
-19.385902 18.612635 17.365707
-19.110134 18.955231 17.39279
-18.739513 19.202745 17.33769
-18.125998 19.826002 17.358236
-17.771198 20.084856 17.329285
-17.438164 20.367065 17.325548
-17.10434 20.648207 17.325548
-16.761465 20.91824 17.320879
-16.42053 21.190578 17.322748
-16.072569 21.453892 17.321814
-15.719541 21.71032 17.319946
-15.362424 21.960941 17.318077
-15.002122 22.206888 17.317144
-14.641042 22.451767 17.319946
-14.271347 22.683435 17.317144
-13.900239 22.912724 17.317144
-13.523259 23.1322 17.314342
-13.141401 23.342955 17.309673
-12.778295 23.588076 17.334888
-12.394663 23.796789 17.33769
-6.3107224 12.613046 9.1134644
-6.0896487 12.682987 9.0911674
-5.8649688 12.742554 9.0642252
-5.6556225 12.833698 9.0623674
-5.4169502 12.855164 9.014061
-5.2026968 12.930963 9.0066299
-4.9920454 13.015276 9.0075588
-4.7795348 13.094807 9.0075588
-4.5657582 13.170868 9.0075588
-4.3476305 13.23388 9.0010567
-4.1307945 13.300147 8.999198
-3.9145694 13.368382 9.0010567
-3.696454 13.430327 9.0010567
-3.4744885 13.477579 8.9936247
-3.2546542 13.532348 8.9936247
-3.0342708 13.584934 8.9945536
-2.8121665 13.629707 8.9926958
-2.5821855 13.632716 8.9657583
-2.3599441 13.67294 8.9657583
-2.1370776 13.709541 8.9657583
-1.9136448 13.74251 8.9657583
-1.68988 13.773265 8.9666872
-1.4653174 13.797517 8.9657583
-1.2401561 13.815245 8.9629717
-1.0154371 13.837901 8.9657583
-0.7901454 13.854032 8.9666872
-0.56448066 13.863621 8.9657583
-0.33794108 13.837921 8.9443951
-0.11270377 13.847338 8.9481106
0.11265697 13.841588 8.9443951
0.33794108 13.837921 8.9443951
0.56313562 13.830587 8.9443951
0.79071832 13.864078 8.9731894
1.0161735 13.847937 8.9722605
1.2424694 13.841016 8.9796915
1.4675945 13.818958 8.9796915
1.6916305 13.787533 8.975976
1.9178082 13.772409 8.9852648
2.1419485 13.740788 8.9861937
2.3653231 13.704103 8.9861937
2.581918 13.631304 8.9648294
2.8037426 13.58888 8.9657583
3.0267503 13.551264 8.9722605
3.2469227 13.500202 8.9722605
3.4770005 13.487324 9.0001268
3.6991243 13.44003 9.0075588
3.9169931 13.376659 9.0066299
4.135911 13.316622 9.0103455
4.3539124 13.253 9.014061
4.5704665 13.184451 9.0168476
4.7869287 13.115064 9.021493
5.0306587 13.115948 9.0772314
5.2429433 13.030993 9.0763025
5.4588199 12.954527 9.0837345
5.6735954 12.874483 9.0911674
5.8679743 12.749084 9.0688705
6.0790696 12.660954 9.0753736
6.2849894 12.561614 9.0763025
6.4939351 12.46785 9.0837345
6.7008071 12.369346 9.0902376
6.9012547 12.258638 9.0902376
7.1274486 12.191851 9.1255426
7.3227134 12.070534 9.1227551
7.5419512 11.987472 9.1515579
7.7431407 11.873963 9.1599197
7.9595356 11.782102 9.1877947
8.1988907 11.720506 9.2426195
10.134823 13.997245 11.166649
10.362178 13.831579 11.16758
10.565637 13.63488 11.14616
10.786171 13.461097 11.14616
11.024076 13.308166 11.166649
11.242981 13.131343 11.170374
11.430398 12.918538 11.14616
11.668333 12.762686 11.174099
11.872546 12.568974 11.172236
12.106763 12.406036 11.201107
12.302999 12.203272 11.197382
12.478168 11.980437 11.177824
12.668353 11.7728 11.17503
12.832582 11.541907 11.152678
13.018749 11.331503 11.152678
13.205876 11.121809 11.156404
13.354988 10.880805 11.131259
13.540513 10.670013 11.139641
13.770861 10.49275 11.187138
13.939827 10.267212 11.187138
14.052259 10.001346 11.145228
14.212001 9.7704763 11.144298
14.495239 9.6215467 11.242086
14.723966 9.4317598 11.298902
14.879214 9.1931219 11.301696
14.931523 8.8929243 11.229979
15.083047 8.6537266 11.236499
13.780491 7.6109796 10.172476
13.864403 7.3654017 10.144565
13.952959 7.1236978 10.123166
14.096797 6.9102182 10.144565
14.20871 6.6804624 10.145495
14.315565 6.4483027 10.145495
14.458295 6.2315311 10.173407
14.556479 5.9948201 10.172476
14.607904 5.7397146 10.141773
14.673774 5.4915934 10.124097
14.761216 5.2520218 10.124097
14.844748 5.0110579 10.124097
14.966862 4.782352 10.152938
15.041343 4.5376873 10.152008
15.39856 4.3733001 10.343685
16.749872 4.4637713 11.201107
16.863665 4.2013445 11.229979
17.039337 3.9516983 11.302627
17.10281 3.6741288 11.303558
17.088236 3.3809924 11.256058
15.52207 2.8093843 10.192945
15.56148 2.55566 10.190154
15.686486 2.3146393 10.24598
15.759206 2.0638661 10.270173
15.792143 1.8072444 10.271104
15.742079 1.5423745 10.220858
15.690473 1.2798498 10.172476
15.661812 1.0211955 10.141773
15.676359 0.76613349 10.141773
15.702582 0.51138395 10.152008
15.708826 0.25572586 10.152008
15.57506 0 10.368501
15.580131 0.25363082 10.37325
15.616726 0.5085879 10.40175
15.639161 0.76431555 10.4236
15.624649 1.0187724 10.4236
15.635866 1.2753956 10.44355
15.613035 1.529731 10.44355
15.586067 1.7836612 10.44355
15.522425 2.0328565 10.4217
15.478809 2.2839954 10.415999
15.439582 2.5356407 10.415999
15.438392 2.794239 10.4445
15.389464 3.0448821 10.44355
15.369956 3.3018665 10.465402
15.354493 3.5609555 10.492953
15.295882 3.8107533 10.493903
15.189078 4.0478263 10.464452
15.089605 4.2855549 10.4426
14.948172 4.5095792 10.39415
14.872789 4.7522926 10.39415
14.752905 4.9800549 10.365651
14.710223 5.2338781 10.39415
14.623083 5.4726224 10.39415
14.521442 5.7057419 10.38655
14.427966 5.9418945 10.3875
14.367343 6.1923308 10.41505
14.225614 6.4077849 10.38655
14.080688 6.6202707 10.358051
13.972346 6.8492126 10.359001
13.859011 7.0757327 10.359001
13.742003 7.3003778 10.359001
13.658829 7.543786 10.3875
13.532992 7.7644005 10.38655
13.440373 8.0048237 10.4141
15.068593 9.3101301 11.791577
14.789932 9.4740162 11.692656
14.41118 9.5657511 11.514807
14.25357 9.7990541 11.514807
14.113132 10.044671 11.531925
14.005279 10.31542 11.579476
13.776431 10.496994 11.530024
13.54428 10.672981 11.479621
13.359902 10.884809 11.472013
13.183146 11.102666 11.473915
12.967279 11.286703 11.444436
12.72556 11.445649 11.394037
12.537574 11.651266 11.394037
12.316385 11.825108 11.366461
12.144587 12.046144 11.387381
11.968851 12.264715 11.4083
11.768614 12.458946 11.409251
11.563297 12.647799 11.4083
11.326555 12.801175 11.378822
11.11762 12.984926 11.379773
10.932128 13.197167 11.4083
10.716763 13.374475 11.409251
10.490648 13.538108 11.401644
10.268899 13.70707 11.401644
10.043591 13.871243 11.400693
9.8156605 14.031714 11.399742
9.6115541 14.227501 11.430172
9.3966465 14.409583 11.452044
