# .PCD v0.7 - Point Cloud Data file format
VERSION 0.7
FIELDS x y z
SIZE 4 4 4
TYPE F F F
COUNT 1 1 1
WIDTH 1376
HEIGHT 1
VIEWPOINT 0 0 0 1 0 0 0
POINTS 1376
DATA ascii
0.097658813 0.19518766 0.0029813589
0.079396471 0.18841869 0.0027929633
0.070356786 0.20295863 0.0029342598
0.057459738 0.20876849 0.0029578093
0.041315969 0.20024583 0.0027929633
0.030101638 0.21616973 0.0029813589
0.016603667 0.22626701 0.003099106
0.0020008236 0.245831 0.0033581499
-0.013998344 0.24544027 0.0033581499
-0.042954791 0.35010043 0.004818215
-0.063717946 0.3364006 0.0046769185
-0.079445623 0.30817044 0.0043472261
-0.079419598 0.24174763 0.003475897
-0.091763057 0.22807109 0.0033581499
-0.10342321 0.2154008 0.003263952
-0.11891052 0.21121973 0.0033110508
-0.1333432 0.20447934 0.0033346002
-0.15153331 0.20226878 0.0034523476
-0.15876661 0.18543294 0.0033346002
-0.19337253 0.19815262 0.0037820397
-1.0364558 0.9322111 0.019042075
-1.0962677 0.86386609 0.019065624
-1.1387868 0.78289396 0.018877229
-1.1932373 0.7106688 0.018971426
-1.2231294 0.62447 0.018759482
-1.2659181 0.54561126 0.01883013
-1.3036085 0.46382219 0.018900778
-1.3194159 0.37472346 0.018735932
-1.3511145 0.29025456 0.018877229
-1.3193827 0.19468318 0.018217845
-1.2828606 0.10464114 0.01758201
-0.64255118 0.010460167 0.043957528
-0.59764844 0.048749343 0.041016042
-1.3538669 0.19977155 0.093609765
-1.351454 0.29032752 0.094551042
-1.3230816 0.37576455 0.094080403
-1.3087938 0.46566713 0.09502168
-1.258346 0.54234761 0.093727425
-1.2280518 0.62698317 0.094315723
-1.1905667 0.70907819 0.094786361
-1.1348206 0.78016722 0.094198063
-1.0951651 0.86299729 0.095374659
-1.0123943 0.91056973 0.093139127
-0.95580858 0.97943568 0.093609765
-0.17071722 0.19939077 0.017954815
-0.15841351 0.21145257 0.018072473
-0.13962182 0.2141075 0.017484177
-0.12455129 0.22123936 0.017366517
-0.10989249 0.22887446 0.017366517
-0.093483858 0.23234802 0.017131198
-0.082463056 0.2510117 0.018072473
-0.086567663 0.33579692 0.023720121
-0.061974753 0.32719731 0.022778846
-0.045372356 0.36980465 0.025485011
-0.015044413 0.26378155 0.018072473
0.0019683461 0.24184066 0.016542902
0.015937079 0.21718305 0.014895672
0.031220455 0.22420432 0.015483968
0.046089679 0.22338252 0.015601628
0.054135926 0.19669208 0.013954397
0.06681893 0.19275296 0.013954397
0.079218768 0.18799697 0.013954397
0.092052549 0.18398258 0.014072056
0.11164144 0.19096816 0.01513099
0.13634799 0.20182909 0.016660562
0.15656629 0.20204771 0.017484177
0.19901665 0.2249269 0.02054332
0.29627454 0.29387298 0.028544154
0.56388277 0.49080285 0.051134747
0.64798188 0.4937318 0.055723459
0.46376291 0.30783325 0.03807456
0.52607715 0.3018308 0.041486681
0.56776887 0.27831903 0.04325157
0.2586183 0.10650723 0.019131407
0.26174062 0.088354312 0.01889609
0.26693475 0.071137004 0.01889609
0.2608732 0.051615059 0.018190132
0.27732319 0.036318954 0.019131407
0.27909863 0.018198038 0.019131407
0.7196998 0 0.088922448
0.60377228 0.039367698 0.074757434
0.27078354 0.035462506 0.033742327
0.25279513 0.050016772 0.031839564
0.25231197 0.067240097 0.0322624
0.24740237 0.083514228 0.0322624
0.25251973 0.10399564 0.033742327
0.25136402 0.12321808 0.034587998
0.24133006 0.13846038 0.03437658
0.55685675 0.36962643 0.082579903
0.26622188 0.20284858 0.041353378
0.53253978 0.46352196 0.0872311
0.39920396 0.39596805 0.069471985
0.31249863 0.35318327 0.058266826
0.19557567 0.25238904 0.039450616
0.17011875 0.25181824 0.037547853
0.14819224 0.25349009 0.036279343
0.12679109 0.25341341 0.035010837
0.10804077 0.25639552 0.03437658
0.091129526 0.26288188 0.03437658
0.072469875 0.26330483 0.033742327
0.056567527 0.27416542 0.034587998
0.038845159 0.27895981 0.034799416
0.020737629 0.2826027 0.035010837
0.0024315552 0.29875278 0.0369136
-0.032016609 0.56136394 0.069471985
-0.059721787 0.48675883 0.060592424
-0.071840987 0.37928635 0.04769592
-0.11857916 0.45996985 0.058689661
-0.08096385 0.24644823 0.032050982
-0.09810479 0.24383304 0.032473817
-0.10487419 0.2184228 0.029936802
-0.1188636 0.21113636 0.029936802
-0.13608794 0.20868835 0.030782474
-0.16476703 0.21993333 0.033953745
-0.16982479 0.19834843 0.0322624
-0.99024993 1.0147284 0.17518103
-1.0503579 0.94471508 0.17454678
-1.100192 0.8669585 0.17306684
-1.1458088 0.78772146 0.17179833
-1.2034546 0.71675408 0.17306684
-1.2292521 0.62759596 0.17052983
-1.2659103 0.54560786 0.17031841
-1.2938913 0.46036485 0.16968416
-1.3260412 0.37660512 0.17031841
-1.352754 0.29060677 0.17095266
-1.2739992 0.18798657 0.15911326
-0.60987335 0.04974651 0.075603105
-0.59998953 0.0097673014 0.10768743
-0.60653973 0.049474593 0.10921016
-1.365912 0.20154887 0.24777853
-1.2486943 0.26825204 0.22920123
-1.3069531 0.37118393 0.24381943
-1.2784339 0.4548651 0.2435149
-1.2648306 0.54514247 0.24716944
-1.2281923 0.62705487 0.24747398
-1.1906228 0.70911169 0.24869217
-1.1391649 0.78315389 0.24808308
-1.0964587 0.86401665 0.25051945
-1.0555829 0.94941449 0.25478309
-0.99512845 1.0197276 0.25569671
-1.0204866 1.1918867 0.28158313
-0.1705319 0.22762837 0.05104189
-0.44272029 0.6789034 0.14545111
-0.12620938 0.22418462 0.046169158
-0.10915183 0.22733189 0.045255519
-0.096663021 0.24024962 0.046473701
-0.090360336 0.27505046 0.051955529
-0.13920771 0.53998822 0.10007378
-0.084197685 0.4445239 0.081191935
-0.056543089 0.46085104 0.083323754
-0.027211173 0.47710767 0.085760124
0.0024667673 0.30307913 0.054391894
0.021436131 0.29212156 0.052564621
0.03875915 0.27834216 0.050432798
0.056101441 0.27190647 0.049823709
0.073223755 0.2660439 0.049519163
0.089822844 0.25911245 0.049214616
0.10715058 0.25428298 0.049519163
0.12650573 0.25284308 0.050737344
0.1478277 0.25286654 0.052564621
0.1668171 0.24693099 0.05347826
0.19292478 0.24896806 0.056523718
0.34815824 0.39348546 0.094287403
0.50314665 0.49906823 0.12717836
0.4142268 0.36054248 0.09855105
0.65008211 0.49533209 0.1466693
0.54095739 0.35907286 0.11651926
0.66179579 0.37969783 0.13692383
0.54338545 0.26636633 0.10860106
0.26299247 0.10830864 0.05104189
0.26305071 0.088796549 0.049823709
0.26335144 0.07018207 0.04891007
0.26902455 0.053227846 0.049214616
0.30220562 0.039577622 0.054696441
0.81047648 0.052845415 0.14575566
0.32315671 0 0.076416902
0.33586642 0.021899464 0.079591021
0.79123586 0.10362228 0.18870135
0.76800352 0.15195331 0.18513046
0.28956065 0.077166714 0.070862196
0.26802891 0.090477012 0.066894546
0.27243426 0.11219708 0.069671899
0.67585552 0.33130285 0.17798869
0.66451001 0.38125509 0.1811628
0.63270396 0.41997176 0.17957576
0.64674503 0.49278936 0.19227222
0.40701804 0.35426798 0.12759957
0.38548774 0.38236299 0.12839308
0.53657568 0.60643321 0.1914787
0.20513441 0.26472449 0.079194255
0.1724474 0.25526524 0.072846018
0.14785199 0.25290808 0.069275133
0.13033254 0.26049161 0.068878368
0.10724369 0.25450394 0.065307483
0.089907654 0.25935712 0.064910725
0.073287383 0.26627508 0.065307483
0.056146022 0.27212253 0.065704249
0.039941341 0.28683186 0.068481602
0.021439653 0.29216957 0.069275133
0.0038591069 0.47414881 0.11212573
-0.026044041 0.45664376 0.10815808
-0.061421491 0.50061214 0.1192675
-0.11603357 0.61260229 0.1474378
-0.16276704 0.63137513 0.15418281
-0.14537382 0.44250759 0.11014191
-0.10120806 0.25154603 0.064117193
-0.11881286 0.24745303 0.064910725
-0.13136911 0.2333498 0.063323662
-0.467049 0.71621102 0.20219134
-0.51970142 0.69370478 0.20496869
-0.18943971 0.22125787 0.068878368
-1.1374044 1.1655205 0.38509992
-1.0449104 0.93981546 0.3323302
-1.0880308 0.85737538 0.32756901
-1.1276838 0.77526081 0.32360137
-1.1843858 0.70539701 0.32598197
-1.2217951 0.62378877 0.32439491
-1.2474661 0.53765839 0.32122079
-1.282967 0.45647794 0.3220143
-1.306721 0.37111801 0.32122079
-1.3543457 0.29094872 0.32756901
-1.3720664 0.202457 0.3279658
-1.4258119 0.11630147 0.33828166
-0.58136171 0.0094640572 0.17151034
-0.5992927 0.048883464 0.17736395
-1.3833845 0.20412704 0.41248336
-1.3542372 0.29092538 0.40858096
-1.3069861 0.37119332 0.40077618
-1.4327506 0.50977081 0.44858053
-1.3980652 0.60256666 0.44906834
-1.20714 0.6163066 0.39980057
-1.1786902 0.70200491 0.40467855
-1.1032624 0.75847161 0.39492255
-1.0619659 0.8368361 0.39882496
-1.1331387 1.0191699 0.44955611
-1.0909901 1.1179588 0.46077552
-1.0374491 1.2116983 0.47053149
-0.49635062 0.66253579 0.24419248
-0.41515595 0.63663393 0.22419271
-0.36879754 0.65509182 0.2217537
-0.32252958 0.67173642 0.21980251
-0.27134988 0.67442238 0.21443671
-0.22740993 0.69221973 0.21492451
-0.16000946 0.62067842 0.18907113
-0.13652045 0.72076327 0.21638791
-0.085307173 0.69529092 0.20663191
-0.04148826 0.72743535 0.21492451
0.0057281512 0.70378876 0.20760752
0.036742907 0.50071514 0.14809597
0.041418646 0.29744086 0.088584408
0.059347145 0.28763738 0.086633213
0.077497609 0.28157207 0.086145408
0.09565381 0.27593309 0.086145408
0.11340463 0.26912472 0.086145408
0.13141482 0.26265472 0.086633213
0.15490276 0.26496875 0.090535611
0.29308468 0.43383855 0.15443736
0.33385921 0.43084297 0.16077875
0.3425554 0.38715318 0.15248616
0.37993452 0.37685481 0.15785195
0.39741257 0.34590739 0.15541296
0.43617666 0.33234614 0.16175435
0.44585407 0.29594585 0.15785195
0.6248154 0.35848075 0.21248551
0.6631496 0.32507443 0.21785131
0.69665718 0.28690556 0.22224151
0.72638309 0.24520105 0.2261439
0.73440617 0.1957162 0.22419271
0.76018441 0.15040627 0.2285829
0.78639638 0.10298849 0.23394869
0.78648043 0.0512808 0.23248529
0.92536521 0 0.32887489
1.1163207 0.072787344 0.39758292
1.1543227 0.15117307 0.41374955
0.75158584 0.14870499 0.27229178
0.71520096 0.1905981 0.26305372
0.69820577 0.2356894 0.26189896
0.53117269 0.2187538 0.20416109
0.64710152 0.31720772 0.25612515
0.6152274 0.35297975 0.25208351
0.59907848 0.39765206 0.25554779
0.41816193 0.31861976 0.18683973
0.39409411 0.34301901 0.18568496
0.36748034 0.3645016 0.18395284
0.34836817 0.39372271 0.18683973
0.32201254 0.41555491 0.18683973
0.43707308 0.64697737 0.27748817
0.37847313 0.64739686 0.26651797
0.14364032 0.28708947 0.11409002
0.28994006 0.68806738 0.26536322
0.18336436 0.52895224 0.19896469
0.14338639 0.52096581 0.19203614
0.089160956 0.43213579 0.15681604
0.065112405 0.46759352 0.16778624
0.035145059 0.4789404 0.17067313
0.0037233478 0.45746878 0.16258982
-0.024569534 0.43079045 0.15335177
-0.080442406 0.65564096 0.23476216
-0.11446556 0.60432392 0.21859555
-0.17828207 0.69155806 0.25381565
-0.2254356 0.68620998 0.25670254
-0.23746671 0.59020799 0.22610147
-0.31614968 0.65844893 0.25958943
-0.36230648 0.64356184 0.26247633
-0.40784895 0.62542886 0.26536322
-0.49832922 0.66517681 0.29538691
-0.55640173 0.64985454 0.30404758
-1.2158883 1.2459444 0.61871898
-1.1373527 1.0229601 0.54365975
-1.0726231 0.8452341 0.4853445
-1.0825056 0.74420172 0.46686837
-1.1872561 0.70710659 0.49111828
-1.4014844 0.71552932 0.55924892
-1.3719665 0.59131813 0.5309574
-1.4136556 0.50297683 0.5332669
-1.3605587 0.38640833 0.50266582
-1.3033999 0.2800042 0.4737969
-1.392787 0.20551445 0.50035632
-0.57741034 0.047098547 0.20589322
-0.59259146 0.0096468683 0.24786639
-1.5736363 0.1283593 0.66031182
-1.5981429 0.235816 0.67561221
-1.5545307 0.33395368 0.66496843
-1.3260021 0.37659401 0.57649225
-1.2507342 0.44500959 0.55520475
-1.5667844 0.67528474 0.7135306
-1.5436107 0.78809208 0.72483957
-1.275871 0.75988388 0.62106299
-1.3403836 0.92148787 0.68026882
-1.2950779 1.02053 0.68958211
-1.1159469 1.0037073 0.62771529
-1.0649403 1.0912652 0.63769382
-0.54580724 0.63748068 0.35097775
-0.47170106 0.62963319 0.329025
-0.39932477 0.61235714 0.30574179
-0.35161287 0.62456685 0.29975468
-0.30747661 0.64038539 0.29709375
-0.26100248 0.64870465 0.29243711
-0.21724874 0.66128975 0.29110664
-0.17535007 0.68018484 0.29376757
-0.12953839 0.68390131 0.29110664
-0.085347161 0.6956169 0.29310235
-0.040177904 0.70446014 0.29509804
0.0035549083 0.43677348 0.18267341
0.03231515 0.44037578 0.18466911
0.097097144 0.69728643 0.29443282
0.14258157 0.6910491 0.29509804
0.14925362 0.54228324 0.23522693
0.23267262 0.67119205 0.29709375
0.27955654 0.66342592 0.30108514
0.2908136 0.58124012 0.27181482
0.3673518 0.62837327 0.30441132
0.41636258 0.61632067 0.31106368
0.45850396 0.59169614 0.31305939
0.336871 0.38072872 0.21260896
0.36544648 0.36248419 0.21526989
0.38825703 0.33793843 0.21526989
0.41068742 0.31292453 0.21593513
0.5640282 0.37438667 0.28312382
0.61340642 0.35193497 0.29576328
0.64785951 0.31757927 0.30175039
0.64508814 0.26566777 0.29177186
0.69416267 0.23432457 0.30640703
0.70025307 0.18661454 0.30308086
0.74055856 0.14652319 0.31572032
0.73748273 0.096582629 0.31106368
0.76918763 0.050153259 0.32237265
0.80172801 0 0.3880209
0.80157787 0.052265197 0.38877201
0.82725453 0.10833938 0.40379411
0.76060063 0.15048862 0.37525213
0.71470678 0.1904664 0.3579767
0.52287954 0.17650549 0.26709297
0.68966269 0.28402501 0.36098114
0.62930954 0.3084861 0.33919907
0.58098221 0.33333197 0.32417697
0.42100397 0.27945104 0.24455982
0.39946061 0.30437025 0.24305762
0.37646919 0.32767829 0.24155541
0.35765669 0.35475755 0.24380872
0.33895859 0.38308808 0.24756426
0.38841152 0.50124234 0.30690154
0.3462877 0.51259232 0.29939049
0.32316771 0.55279422 0.30990598
0.27887696 0.55738276 0.30164382
0.1709086 0.40558946 0.21301341
0.13805714 0.39825425 0.20400015
0.11144048 0.40489674 0.20324905
0.080155864 0.38849086 0.19198246
0.054280877 0.38980877 0.19048026
0.028916633 0.39406234 0.19123137
0.0056661712 0.69617361 0.33694577
-0.039023604 0.68422121 0.33168802
-0.050763689 0.41374639 0.20174684
-0.12840833 0.67793512 0.33394134
-0.11025907 0.42769617 0.21376452
-0.21486914 0.65404648 0.33319023
-0.25696921 0.63868016 0.33319023
-0.30066717 0.6262033 0.33619466
-0.34610316 0.61478001 0.34145239
-0.38960886 0.597458 0.34520793
-0.47697312 0.63667041 0.3850165
-0.52546191 0.61371815 0.39102533
-0.65207607 0.66819507 0.45186484
-1.1199496 1.0073073 0.72902262
-1.51711 1.1954926 0.93482542
-1.2553374 0.86302018 0.73728478
-1.2901624 0.76839554 0.72676933
-1.3540106 0.69129151 0.73578256
-1.5870962 0.68403912 0.83643067
-1.8607204 0.6620419 0.95585638
-1.8013223 0.51158834 0.90628344
-1.6456795 0.35353479 0.81464863
-0.6657095 0.098229609 0.32567918
-0.71090686 0.057987671 0.34520793
-0.70231056 0.011432998 0.38865221
-1.1782249 0.096106157 0.65409768
-0.81576717 0.12037157 0.45626566
-0.81210643 0.1744616 0.45960459
-1.745221 0.49565515 1.0038513
-1.5742484 0.56011552 0.92455149
-1.6757797 0.72226173 1.0096943
-1.3350145 0.68159306 0.82939184
-1.2709882 0.75697577 0.81854028
-1.2364469 0.85003334 0.83022654
-1.6264188 1.2816287 1.145756
-1.5979097 1.4371952 1.1891623
-0.6286006 0.64413929 0.49800238
-0.50882769 0.59429002 0.4328931
-0.43471056 0.58025771 0.4011732
-0.37790614 0.57951212 0.38280907
-0.33865952 0.60155791 0.38197434
-0.29292491 0.61007839 0.37446171
-0.2486679 0.61804777 0.36861858
-0.13871275 0.42223176 0.24591267
-0.10379101 0.40260649 0.23005272
-0.079340875 0.41888225 0.23589586
-0.05283688 0.4306438 0.24006952
-0.022729468 0.39852762 0.22087064
0.0032610663 0.40067059 0.22170538
0.04941747 0.67343813 0.37362698
0.092713699 0.66580749 0.37195751
0.077003218 0.37321097 0.21085383
0.10152326 0.36886448 0.21168858
0.12580232 0.36290267 0.21252331
0.26689628 0.63338137 0.38030487
0.27581534 0.55126357 0.34107235
0.30576906 0.52303296 0.33522922
0.33661863 0.49827969 0.33272502
0.3683258 0.47532186 0.33272502
0.42246431 0.47746554 0.35275865
0.35623878 0.35335115 0.27763256
0.37961254 0.33041427 0.2784673
0.40150642 0.30592906 0.27930203
0.42307466 0.2808255 0.2809715
0.55036622 0.31576639 0.35108918
0.57245451 0.2806159 0.35275865
0.62995285 0.25943458 0.37696594
0.65836227 0.22223964 0.38447854
0.70641255 0.18825601 0.40451214
0.70976496 0.14043052 0.40033847
0.73684382 0.096498951 0.41119003
0.82435828 0.053750545 0.45710039
1.0818415 0 0.67829478
0.8084228 0.052711509 0.50794256
0.71492803 0.093628809 0.45207438
0.67722851 0.13399303 0.43284106
0.66707528 0.17777281 0.43284106
0.61534208 0.20771755 0.40719667
0.60322452 0.248427 0.40902841
0.55036795 0.26978913 0.38429987
0.43662032 0.25050595 0.31560946
0.54353535 0.36078402 0.40902841
0.4642995 0.35377443 0.36598241
0.43809372 0.38131621 0.36415067
0.42894897 0.42547193 0.37880462
0.39261296 0.44372782 0.37147766
0.29043537 0.37480482 0.29729202
0.32594499 0.48248005 0.36506656
0.2938619 0.50266522 0.36506656
0.18732786 0.3744064 0.2624889
0.22780257 0.54060668 0.36781415
0.21750329 0.627433 0.41635537
0.17466812 0.63462168 0.41269189
0.083121687 0.40286529 0.25790954
0.054315623 0.39005828 0.24691907
0.028500779 0.38839528 0.24417146
0.0031933293 0.39234811 0.2460032
-0.023921832 0.41943398 0.26340476
-0.049382593 0.40248984 0.25424606
-0.074378446 0.39268294 0.25058255
-0.10268792 0.39832756 0.25790954
-0.12519595 0.38108763 0.25149843
-0.24132827 0.59980565 0.4053649
-0.28426901 0.59205061 0.41177601
-0.20609729 0.36608881 0.26340476
-0.40741488 0.62476319 0.46764421
-0.45070496 0.60160732 0.47130769
-0.49649373 0.57988447 0.47863466
-0.60254729 0.61744195 0.54091394
-1.5548451 1.3984619 1.3111622
-1.6413937 1.293429 1.3102463
-1.690775 1.1623752 1.2864337
-1.2482576 0.74343789 0.91092622
-1.7272204 0.88183427 1.2159116
-1.6964242 0.73115951 1.1582116
-1.8023334 0.6412679 1.1994258
-1.7109606 0.48592496 1.1151657
-1.7418082 0.37418574 1.1169974
-1.7407869 0.25686401 1.1032593
-1.5776438 0.12868619 0.99243879
-1.6866785 0.027457641 1.1907455
-1.6686828 0.13611211 1.1817969
-1.6730126 0.2468635 1.1937282
-2.2621055 0.48595914 1.6331985
-1.6403412 0.46586853 1.203671
-2.6124747 0.92951506 1.9573326
-1.7185955 0.74071532 1.3209957
-1.5450706 0.78883743 1.2245508
-1.6199616 0.96481752 1.3309385
-1.6175936 1.1120644 1.3856236
-1.5683622 1.2358798 1.4094863
-1.4940523 1.3437835 1.4184347
-0.58495265 0.59941244 0.59119678
-0.47417292 0.55381465 0.51463747
-0.41602084 0.55531049 0.48978058
-0.22128047 0.33932951 0.28595391
-0.19666018 0.34932575 0.28297105
-0.172905 0.36011142 0.28197679
-0.14963384 0.37190512 0.28297105
-0.11940367 0.36345631 0.27004549
-0.095502466 0.37045512 0.27004549
-0.074604325 0.39387551 0.28297105
-0.044873536 0.36573905 0.26010272
-0.020981736 0.36788374 0.26010272
0.0032970437 0.40509096 0.28595391
0.028719429 0.39137495 0.2770054
0.051792055 0.37193573 0.2650741
0.07531295 0.36501876 0.26308554
0.10039835 0.36477736 0.26706263
0.12622653 0.36412638 0.27203402
0.15238568 0.36163208 0.2770054
0.18063441 0.3610284 0.28495961
0.20587456 0.35215855 0.28794244
0.24254453 0.35902649 0.30583942
0.28696001 0.37031987 0.33069634
0.36365014 0.41099429 0.38737008
0.41362211 0.41026932 0.41123274
0.3671914 0.31960294 0.34362194
0.45219108 0.3445484 0.40128997
0.47951871 0.31829152 0.40626135
0.55296975 0.31726012 0.4500095
0.57370526 0.28122902 0.45100379
0.53738755 0.22131325 0.41023844
0.59068602 0.19939455 0.44006675
0.61329645 0.16344096 0.44802096
0.63644898 0.12592459 0.45796371
0.66843319 0.087539725 0.47586069
0.75985879 0.04954499 0.53750581
0.71205288 0 0.56331116
0.71189338 0.046417508 0.56438088
0.64032865 0.083859086 0.51089519
0.62555683 0.12376953 0.5044769
0.60049945 0.1600306 0.49164036
0.58625239 0.19789791 0.48950094
0.57463455 0.23665275 0.49164036
0.55073434 0.26996872 0.4852221
0.4839153 0.27764091 0.44136384
0.45017979 0.29881716 0.42745754
0.42870787 0.3266553 0.42638785
0.41470522 0.36095887 0.43494555
0.39226079 0.38908115 0.43708497
0.34998578 0.39555091 0.41783014
0.32019481 0.41320917 0.41355127
0.3054989 0.45221469 0.43173641
0.27269861 0.46646434 0.42745754
0.24177039 0.483219 0.42745754
0.15731068 0.37331975 0.32048619
0.13047299 0.37637615 0.31513762
0.10427243 0.37885305 0.31085879
0.077762112 0.37688908 0.3044405
0.045056064 0.32356235 0.25844282
0.024303922 0.33120251 0.26272166
0.0027358374 0.3361384 0.2659308
-0.019679673 0.34505397 0.27341878
-0.043735486 0.35646343 0.28411594
-0.071617201 0.3781049 0.3044405
-0.093028791 0.36085969 0.29481307
-0.11504482 0.35018829 0.29160392
-0.1391001 0.34572423 0.29481307
-0.16539669 0.34447375 0.30230105
-0.18812265 0.33416063 0.30337077
-0.21020469 0.32234502 0.3044405
-0.41719952 0.55688375 0.55047464
-0.45694607 0.53369439 0.55582321
-0.49825761 0.51057428 0.56438088
-0.6058234 0.54489088 0.64460939
-1.6425704 1.2943562 1.6544191
-1.7132785 1.177846 1.6447916
-1.5585842 0.92826235 1.4351277
-1.8505158 0.94478285 1.6437219
-1.6522671 0.7121278 1.4233609
-1.9498878 0.69376755 1.6373036
-1.6006771 0.45460367 1.3163896
-2.1834297 0.46905756 1.766739
-1.6274289 0.24013734 1.3014135
-2.1786826 0.17771208 1.7292989
-2.1383154 0.034809891 1.8906262
-1.5688993 0.12797292 1.3915905
-1.5508589 0.22883895 1.3858806
-2.4078889 0.51727718 2.1772578
-1.9106129 0.54262763 1.7558751
-1.8590884 0.66146123 1.7444556
-1.8310913 0.78920114 1.7627269
-1.7655079 0.90138197 1.7524493
-1.7042285 1.0150052 1.7535912
-1.6303185 1.1208125 1.7490234
-1.5610406 1.2301103 1.7570171
-0.57106334 0.51362699 0.67900842
-0.52831471 0.54137439 0.6687308
-0.44408435 0.51867241 0.60363919
-0.22971411 0.3066256 0.33870485
-0.20151539 0.30902013 0.32614329
-0.17971469 0.31922564 0.32385939
-0.16024089 0.3337357 0.32728526
-0.13336532 0.33147079 0.31586567
-0.11111251 0.3382186 0.31472373
-0.090160809 0.34973478 0.31929156
-0.066252783 0.34978333 0.31472373
-0.043825764 0.35719922 0.3181496
-0.019829849 0.3476871 0.30787197
0.0027081799 0.33274025 0.29416847
0.02397396 0.3267059 0.28960064
0.044645727 0.32061559 0.28617474
0.065672912 0.31829646 0.28731671
0.087614752 0.31833071 0.29188454
0.21941325 0.63294268 0.59221959
0.26414338 0.6268484 0.60135525
0.23905656 0.47779495 0.47231397
0.26572603 0.45453742 0.46546221
0.29256803 0.43307376 0.46203634
0.32012591 0.41312024 0.46203634
0.33519948 0.37883955 0.44719088
0.37014356 0.36714321 0.46089438
0.40688819 0.35415497 0.4768818
0.42804155 0.32614759 0.47573984
0.43436435 0.28831929 0.46089438
0.46228719 0.26523203 0.471172
0.49248338 0.24141423 0.4848755
0.56328475 0.23197855 0.53854758
0.57473701 0.19401075 0.53626364
0.57490885 0.15321083 0.52598602
0.60393405 0.11949135 0.54425734
0.6245178 0.08178845 0.5568189
0.65300697 0.042577948 0.57851607
0.77893811 0 0.76837051
4.9356413 0.32181811 4.8790197
0.61777699 0.080905661 0.61459953
0.5919382 0.11711791 0.59522682
0.58069152 0.15475188 0.59280527
0.58334786 0.19691746 0.60733479
0.56021965 0.23071624 0.59764844
0.46246201 0.22669783 0.50804961
0.44034407 0.25264242 0.50078481
0.43217686 0.28686729 0.51168197
0.41454878 0.31586674 0.51410359
0.38756347 0.33733475 0.5068388
0.35520756 0.3523283 0.49352005
0.33397087 0.377451 0.49715242
0.30344158 0.39158925 0.48867688
0.3219825 0.47661453 0.56737852
0.18311898 0.313234 0.35791102
0.15960436 0.31899628 0.35185704
0.13422102 0.31852484 0.34095988
0.1095936 0.3161453 0.33006272
0.087488584 0.31787232 0.32521954
0.066124864 0.3204869 0.32279795
0.044963066 0.32289448 0.32158715
0.024128234 0.32880828 0.32521954
0.0027032639 0.33213624 0.32764113
-0.019611742 0.34386292 0.33974907
-0.04074771 0.33211178 0.33006272
-0.062498562 0.32996279 0.33127353
-0.086899221 0.33708304 0.34338146
-0.1059656 0.32255179 0.33490589
-0.12718597 0.31611243 0.3361167
-0.15120322 0.31491283 0.34459227
-0.30023316 0.53330153 0.60370237
-0.19416796 0.29775298 0.35064623
-0.38386905 0.51239377 0.63155067
-0.41719273 0.4872641 0.63276148
-0.45058423 0.46172246 0.63639385
-0.54264188 0.48806405 0.7199387
-1.4862409 1.1711675 1.8665617
-1.5542358 1.0685072 1.8605076
-1.6204647 0.9651171 1.8605076
-1.6929445 0.86433464 1.8750372
-1.7422134 0.75089467 1.8714048
-1.794317 0.63841563 1.8786695
-1.8899101 0.53674787 1.9379985
-2.2976501 0.49359506 2.3181882
-1.9326786 0.28517884 1.9271014
-1.8920861 0.15433481 1.8726156
-2.208082 0.035945632 2.4303043
-1.7850279 0.14560221 1.9709377
-1.8337139 0.270576 2.0398426
-1.7487401 0.37567487 1.9683857
-1.7205914 0.48866016 1.9683857
-1.6785965 0.59724247 1.9607296
-1.6393746 0.70657116 1.9645576
-1.589928 0.81173944 1.9645576
-1.5347396 0.91406095 1.9658337
-1.469148 1.0100108 1.9620056
-0.55061966 0.43389189 0.77148062
-0.50742835 0.45639226 0.7510643
-0.47260901 0.4842917 0.74468422
-0.43632674 0.50961185 0.73830414
-0.40363482 0.53877741 0.74085617
-0.33288977 0.51048034 0.67067516
-0.28759378 0.51085031 0.64515483
-0.1433344 0.29852435 0.36443079
-0.12101048 0.30076364 0.35677469
-0.099737391 0.30359358 0.35167062
-0.082377881 0.31954473 0.36315477
-0.060764883 0.32080978 0.35932672
-0.0387743 0.31602761 0.35039461
-0.018129889 0.31788081 0.35039461
0.0026291045 0.32302466 0.35549867
0.023725905 0.32332551 0.35677469
0.044392884 0.31879985 0.35422266
0.065275744 0.3163715 0.35549867
0.086337432 0.31368983 0.3580507
0.10808373 0.31178975 0.36315477
0.12994222 0.30837068 0.36825886
0.1544003 0.30859509 0.37974301
0.23852241 0.40800428 0.520105
0.30285922 0.44830731 0.59539008
0.43152681 0.55688232 0.77530867
0.31164035 0.35221323 0.51755297
0.5191204 0.51491243 0.8046571
0.38884735 0.33845225 0.56731772
0.41557837 0.31665123 0.57497382
0.49326339 0.3274149 0.65153491
0.44110942 0.25308153 0.55966157
0.4441478 0.21772026 0.54434937
0.46702179 0.1923344 0.55583352
0.63015199 0.21271686 0.73192406
0.58103549 0.15484355 0.66174304
0.59897876 0.11851092 0.67195117
4.6430893 0.60807091 5.153327
4.7480226 0.3095848 5.2362685
4.4650559 0 5.4882913
4.4566808 0.29058847 5.4896288
4.4283299 0.57994545 5.4896288
4.3812127 0.86684471 5.4896288
4.3155279 1.1500703 5.4896288
4.2315545 1.4284221 5.4896288
0.32155034 0.13242464 0.42744368
0.12173561 0.059674524 0.16664419
0.097775578 0.05609763 0.13855809
0.093011871 0.061738759 0.13722065
0.08620134 0.065681376 0.13320835
0.13755508 0.11972777 0.22415382
1.3361423 1.3253117 2.3132246
0.2946097 0.33296534 0.54647523
0.27698642 0.35744905 0.55583727
0.36643487 0.5424152 0.80459982
0.2265777 0.38757229 0.55182499
0.19795913 0.39565477 0.54380035
0.23728703 0.56311458 0.75110251
0.19658148 0.56707972 0.73772818
0.15782435 0.57342327 0.73104101
0.063234277 0.30647713 0.38464582
0.042559162 0.30563128 0.37929606
0.022264641 0.30341211 0.37394634
0.00081117608 0.099665068 0.12250888
-0.0059850072 0.10493825 0.12919605
-0.013595141 0.11080638 0.13722065
-0.020370934 0.10754888 0.13454579
-0.026510535 0.10283466 0.13053349
-0.031447254 0.095723212 0.12384632
-0.035578109 0.088427067 0.11715915
-0.042669088 0.088867441 0.12117145
-0.049962163 0.088747352 0.12518375
-0.083564796 0.12814507 0.18804312
-0.10999225 0.1468192 0.22549124
-0.14408013 0.16827972 0.27230141
-0.19424082 0.19904236 0.34184793
-0.21648784 0.19471394 0.35789713
-1.7268589 1.3607762 2.7024176
-1.3885272 0.95458561 2.0711491
-1.4420857 0.85887808 2.0631247
-1.4910363 0.76125014 2.0577748
-1.540405 0.66391522 2.0617871
-1.5793134 0.56191766 2.0604496
-1.6156679 0.45886117 2.0644619
-1.6389087 0.35208026 2.0604496
-1.6658789 0.24581088 2.0698118
-1.6826805 0.1372539 2.0751615
-1.9826005 0.032274991 2.729177
-1.9944807 0.16268699 2.7542844
-1.9215204 0.28353238 2.6733828
-1.9118814 0.4107219 2.6915159
-1.5038326 0.42709911 2.1517062
-1.8795968 0.66875809 2.7459152
-1.4356394 0.61876118 2.1517062
-1.8364129 0.93758255 2.8379757
-1.3474891 0.80253822 2.1586804
-1.2899116 0.88678932 2.154496
-1.6226965 1.2786956 2.8435552
-0.45329824 0.40770644 0.8391459
-0.41944024 0.42980862 0.82659221
-0.38992697 0.45541883 0.82519734
-0.35886142 0.47901323 0.82380247
-0.30534518 0.46824121 0.76940304
-0.26627767 0.4729867 0.74708533
-0.23450004 0.48839617 0.74569046
-0.20260406 0.50355911 0.74708533
-0.18522586 0.5638144 0.81682819
-0.073011927 0.28321406 0.4025557
-0.054618567 0.28836015 0.40395054
-0.060793843 0.49549654 0.68710649
-0.030733887 0.53887331 0.74290079
0.0023391319 0.28739721 0.39558142
0.020885265 0.28461462 0.39279169
0.039778695 0.28566384 0.39697626
0.05930496 0.28743294 0.40395054
0.080570303 0.29273611 0.41789913
0.18541637 0.5348717 0.77916706
0.22061183 0.52354205 0.78195679
0.25511539 0.50989127 0.78474647
0.21256526 0.36360332 0.5797025
0.3214359 0.47580543 0.79032594
0.37778413 0.48752779 0.84890991
0.27640942 0.31239554 0.57412308
0.29471064 0.29232174 0.57133341
1.4108115 1.2279686 2.574348
1.3861521 1.056183 2.3985958
1.4570013 0.96711802 2.406965
3.6071522 2.0695627 5.7239347
3.7341642 1.8304789 5.7239347
0.45129186 0.18585631 0.67176306
0.47010979 0.15869232 0.68292195
4.0194139 1.0711571 5.7253294
0.1298361 0.025688717 0.1821683
0.10309683 0.013501825 0.14311232
0.099711761 0.0065014954 0.13753289
0.08852087 0 0.13699193
0.088333301 0.0057595866 0.13699193
0.094266087 0.012345329 0.14712876
3.7696283 0.74583972 5.9468403
1.7175837 0.45772892 2.7508445
1.6655438 0.56222826 2.720434
3.5523152 1.4629562 5.9453921
1.5792747 0.77415693 2.7218821
1.3940724 0.79983318 2.487287
1.3390775 0.88884336 2.487287
1.2798963 0.97522086 2.4901831
1.2073793 1.0509014 2.4771502
1.1158494 1.1068044 2.4322586
1.058833 1.1966839 2.4728057
0.97987372 1.2645202 2.475702
0.89342648 1.3224944 2.4699097
0.29780677 0.50941312 0.91318303
0.23849033 0.47666323 0.82484788
0.20624429 0.48944589 0.82195163
0.20951401 0.60438627 0.98993325
0.15261233 0.55448639 0.89001316
0.057217021 0.27731332 0.43820041
0.038020011 0.27303416 0.42661548
0.020106072 0.27399614 0.42516735
0.0041170712 0.50584352 0.78285241
-0.028591098 0.50130266 0.77705997
-0.061033685 0.49745136 0.77561182
-0.093793325 0.49518433 0.77995622
-0.12838314 0.49799967 0.7958855
-0.17394786 0.52948493 0.86249894
-0.20314017 0.50489163 0.84222525
-0.2193595 0.45686278 0.78430057
-0.24540702 0.43591434 0.77416372
-0.27682757 0.42450994 0.78430057
-0.30778891 0.41084096 0.79443735
-0.36064559 0.42121935 0.85815454
-0.39251623 0.40221906 0.86973947
-1.0794929 0.97091979 2.2468994
-1.2557684 0.98955375 2.4742539
-1.1933463 0.8204025 2.241107
-1.5842688 0.94355959 2.8536608
-1.6156354 0.82486433 2.8073211
-1.8197001 0.78429151 3.066534
-1.7408053 0.61937624 2.8594532
-1.7531124 0.49789634 2.820354
-1.7827079 0.38297206 2.8218021
-1.7918142 0.26439342 2.8029766
-1.447086 0.11803677 2.2468994
-1.6124679 0.026249558 2.8228502
-1.6005237 0.13055247 2.8108737
-1.7950864 0.26487625 3.1761556
-1.5700196 0.33728108 2.8108737
-1.3020439 0.36978972 2.369242
-1.626544 0.57872224 3.0219588
-1.4746993 0.63559598 2.8108737
-1.4347899 0.73253351 2.8198562
-1.2562307 0.74818647 2.5593684
-1.2041835 0.82785285 2.5578713
-1.1430655 0.90074313 2.5473919
-1.0820367 0.97320771 2.5473919
-0.35577175 0.36456627 0.89164704
-0.32406634 0.37849629 0.87218529
-0.28131795 0.37550715 0.82128537
-0.2562896 0.39301535 0.82128537
-0.23143379 0.4110938 0.82577652
-0.21382058 0.44532678 0.86470002
-0.03243468 0.080614276 0.15210097
-0.026586931 0.080928735 0.14910686
-0.01977046 0.076689832 0.13862745
-0.01569376 0.082855619 0.1476098
-0.01037368 0.084550053 0.14910686
-0.0048017725 0.084191985 0.1476098
0.00065152737 0.080049843 0.14012451
0.006359301 0.086661577 0.15210097
0.48416659 3.476959 6.1448193
0.019287014 0.093478233 0.16707154
0.023512634 0.085428461 0.15509509
0.4758243 1.3726131 2.5429006
0.56412476 1.3387452 2.5429006
0.26734611 0.53433639 1.0458438
0.73707426 1.2608017 2.5563741
0.33351055 0.49367896 1.0428498
0.89507723 1.1550909 2.5578713
0.96493578 1.0905621 2.5488889
1.0362772 1.0278772 2.554877
1.1016051 0.9588356 2.5563741
1.1643783 0.88720161 2.5623624
0.075247496 0.049947251 0.15808919
0.077596024 0.044519838 0.15659215
0.084168054 0.041258991 0.16407743
3.2452216 1.3364854 6.143322
3.3253033 1.1225039 6.143322
3.3912926 0.90376538 6.143322
3.4429097 0.68119681 6.143322
3.4816322 0.45596349 6.1463165
0.1012191 0.0065997788 0.17755094
3.1689329 0 6.3258147
3.1629887 0.20623602 6.3273559
3.1428678 0.41159803 6.3273559
0.077724323 0.015378145 0.15816078
1.4189543 0.37814543 2.9313698
1.3767102 0.4647283 2.9005392
1.3456978 0.55420107 2.9051638
1.3060939 0.64024431 2.9036222
0.084798947 0.048652433 0.19515745
0.067942426 0.045098342 0.16278537
1.1662034 0.88859224 2.9267452
2.3920548 2.0820415 6.3304391
0.088051893 0.087338157 0.24756941
0.091905415 0.10387071 0.27685845
0.81007463 1.0453956 2.6400208
0.072451793 0.10724675 0.25836009
0.080909856 0.13840027 0.32002121
0.11112463 0.22210135 0.49575543
0.037663672 0.089381047 0.19361593
0.023927405 0.069023527 0.14582856
0.019590631 0.071178645 0.14737009
0.64065826 3.1050737 6.3288975
0.011033993 0.07923872 0.1597023
0.0059679965 0.081329063 0.16278537
0.00062598672 0.0769118 0.1535362
-0.005830653 0.10223188 0.20440662
-0.38600537 3.1461134 6.3273559
-0.58988845 3.1143317 6.3273559
-0.79127169 3.0693517 6.3273559
-0.98930156 3.011364 6.3273559
-1.1831388 2.9406142 6.3273559
-1.3722963 2.8580987 6.3288975
-1.5553499 2.7627544 6.3288975
-1.7318121 2.6557019 6.3288975
-0.25585949 0.34152484 0.85184842
-0.27753857 0.32415372 0.85184842
-0.91666889 0.93932855 2.6199811
-0.98043698 0.88182664 2.6323133
-1.0314895 0.81282049 2.6215227
-1.0872806 0.74748445 2.6338549
-1.1336116 0.67515689 2.6338549
-1.1799529 0.60242617 2.6446455
-1.3294071 0.57297498 2.8897486
-0.091380641 0.032513112 0.19361593
-0.070273988 0.019958312 0.14582856
-0.079728737 0.017127808 0.16278537
-0.080674216 0.011903986 0.16278537
-1.4443742 0.11781558 2.8928316
-0.065658793 0.0010688673 0.15118173
-0.075719483 0.006176332 0.17490271
-0.081273042 0.011992347 0.1891353
-0.088379472 0.01898621 0.20811208
-0.084974565 0.024133379 0.20336789
-0.070281155 0.025005942 0.17173991
-0.078598075 0.033875804 0.19704229
-0.070109643 0.035794552 0.18122829
-0.069992751 0.041686315 0.1875539
-0.06713213 0.046152044 0.1875539
-0.92182297 0.72640258 2.701978
-0.87413865 0.78621954 2.7067223
-0.8777411 0.89943844 2.8933272
-0.76598412 0.89463824 2.7114663
-0.039784353 0.05310471 0.15276313
-0.63807368 0.9784742 2.6893268
-0.57170957 1.0155227 2.6830013
-0.50412613 1.0499498 2.6814198
-0.4347432 1.0805258 2.6814198
-0.36437544 1.109133 2.6877453
-0.29092348 1.1284953 2.6830013
-0.21688177 1.145033 2.6830013
-0.051495068 0.41970745 0.97350907
-0.023999574 0.42079705 0.97034627
0.0034359186 0.4221538 0.9719277
0.030895961 0.42103571 0.9719277
0.058130335 0.41745299 0.97034627
0.086140238 0.41749528 0.98141611
0.11439788 0.41564184 0.99248588
0.38238049 1.1030551 2.6877453
0.45360696 1.0764713 2.6893268
0.52268612 1.0446765 2.6893268
0.5898968 1.0090475 2.6909082
0.65430027 0.96852785 2.6909082
0.71761382 0.92607558 2.6972337
0.77634805 0.87742192 2.6972337
0.83227992 0.82553357 2.6988151
0.88319325 0.76873028 2.6956525
0.93461722 0.71213448 2.7051408
0.97954398 0.65019476 2.7067223
1.0221564 0.58645058 2.7130477
1.0587645 0.51900393 2.7146292
1.0934656 0.45032382 2.7225361
1.1178454 0.37734479 2.7162106
1.2369337 0.32963771 2.9470947
1.2557606 0.24845846 2.9470947
1.2679033 0.16604787 2.9439321
1.2753351 0.083155543 2.9423506
0.059112128 0 0.15939184
1.1148878 0.072693914 3.0126026
0.057422761 0.0075202319 0.15615873
0.075043306 0.014847691 0.20627178
0.99789613 0.26593518 2.7846692
1.0562979 0.35656855 3.0061364
0.059093159 0.02433644 0.17232423
1.0005144 0.49044988 3.0045199
0.98364353 0.5643543 3.0578661
0.046252988 0.030701481 0.14969254
0.046064842 0.035099249 0.15615873
0.082121387 0.071478345 0.29356548
0.72682691 0.72093529 2.7604208
0.6771875 0.76535153 2.7555711
0.62668961 0.80873859 2.7588043
0.57106334 0.84531641 2.7507215
0.514853 0.88068128 2.7507215
0.45646071 0.91231394 2.7507215
0.39590123 0.93952781 2.749105
0.33393222 0.96329618 2.749105
0.26991168 0.98067015 2.7426388
0.076272182 0.36966786 1.0177799
0.14044806 1.0086036 2.7458718
0.027448149 0.37405053 1.0113137
0.0030671277 0.37684232 1.0161633
-0.057985105 1.0166831 2.7458718
-0.046185259 0.37643015 1.0226295
-0.18940267 0.99995643 2.7442553
-0.25391358 0.98493356 2.7426388
-0.31689864 0.96461701 2.7377892
-0.37966102 0.94362265 2.7426388
-0.44025311 0.91692066 2.7426388
-0.49897942 0.88633275 2.7426388
-0.55526364 0.8514865 2.7410221
-0.60984826 0.81403399 2.7426388
-0.66269064 0.7739957 2.7474885
-0.71332109 0.73095411 2.7539546
-0.757586 0.68138951 2.7474885
-0.80172777 0.63176674 2.7523382
-0.83866453 0.57656568 2.7442553
-0.87594676 0.52169681 2.749105
-0.91177237 0.46550635 2.7604208
-0.93462288 0.40282285 2.7442553
-0.96619481 0.34377083 2.7652705
-0.98709154 0.280341 2.7668869
-1.0014818 0.21514435 2.7620373
-1.0139511 0.14961484 2.763654
-1.1135569 0.090831272 3.0126026
-0.94992566 0.015463954 3.0658259
-0.94741529 0.077279337 3.0674727
-0.86060941 0.12698831 2.8072662
-0.84752959 0.18207142 2.797385
-0.84321487 0.23947901 2.8286757
-0.81959593 0.29161116 2.8072662
-0.79982299 0.34472403 2.81056
-0.77433521 0.39533767 2.8056195
-0.74872577 0.44592646 2.812207
-0.71518135 0.49167338 2.8006787
-0.68327868 0.53842807 2.8072662
-0.64262432 0.57799047 2.7891507
-0.60508156 0.62003887 2.7957382
-0.56544822 0.66042048 2.8056195
-0.51822013 0.69172746 2.7891507
-0.47239372 0.72440708 2.7907975
-0.42425939 0.75360823 2.7907975
-0.37498978 0.78099585 2.7957382
-0.3235704 0.80421305 2.797385
-0.27039957 0.82307714 2.7957382
-0.2164007 0.83942074 2.797385
-0.16170537 0.85372776 2.8039725
-0.10538012 0.85889429 2.7924445
-0.049476508 0.86749744 2.8039725
0.0070635127 0.86785781 2.8006787
0.063515484 0.86555928 2.8006787
0.11962789 0.85908711 2.799032
0.17506443 0.84848356 2.7957382
0.2297644 0.8348031 2.7940912
0.28359377 0.8180846 2.7940912
0.33622131 0.79789919 2.7940912
0.38810903 0.77570152 2.799032
0.43801504 0.74924624 2.8006787
0.48469365 0.71746773 2.7940912
0.53159887 0.68602461 2.8006787
0.57747567 0.65265805 2.812207
0.61473143 0.60974842 2.7940912
0.65310192 0.56845909 2.7940912
0.69032842 0.52599788 2.8006787
0.72266436 0.47968501 2.799032
0.75101566 0.43088672 2.7940912
0.7774598 0.38110906 2.7940912
0.80202484 0.33029929 2.799032
0.82036561 0.27692619 2.7940912
0.83516604 0.22256829 2.7891507
0.85088152 0.16835114 2.799032
0.86003226 0.11263204 2.799032
0.86401051 0.056335986 2.7940912
0.71448791 0 2.8472388
0.71046138 0.046324141 2.8372049
0.70635802 0.092506453 2.8388772
0.69966567 0.13843234 2.842222
0.68795955 0.18333837 2.8372049
0.67497057 0.22784601 2.8388772
0.65832758 0.27112019 2.8372049
0.63966906 0.31356433 2.8388772
0.055545073 0.031868353 0.25519127
0.046710856 0.031005401 0.22341777
0.042591773 0.032452933 0.21338403
0.037857693 0.032951288 0.20000573
0.034739692 0.034458097 0.19498886
0.032145992 0.036331125 0.19331658
0.028428795 0.036687162 0.18495513
0.025276773 0.03741594 0.17993827
0.020459048 0.034996208 0.16154309
0.01851422 0.0370038 0.16488767
0.016719166 0.039676867 0.17157683
0.013827278 0.039887629 0.16823225
0.0112027 0.040702775 0.16823225
0.011413769 0.055319034 0.22509006
0.098599523 0.70807552 2.848911
0.052166298 0.71089786 2.8405497
0.0057979622 0.7123661 2.8388772
-0.040659811 0.7129097 2.8455665
-0.086754523 0.70708746 2.8388772
-0.13265525 0.70035684 2.8405497
-0.1781522 0.69105434 2.8438942
-0.22195213 0.67560655 2.8338604
-0.26606652 0.66129094 2.8405497
-0.30907437 0.64371306 2.8455665
-0.35050836 0.62260491 2.8472388
-0.39004603 0.59812838 2.8455665
-0.42738178 0.57047522 2.8405497
-0.46386692 0.54177767 2.842222
-0.49784154 0.51014793 2.8405497
-0.53216332 0.47863945 2.8522556
-0.56020063 0.44144177 2.842222
-0.58739007 0.40381932 2.8405497
-0.61205924 0.36453053 2.8388772
-0.63859171 0.32603365 2.8572724
-0.65421271 0.28196594 2.8388772
-0.66998643 0.23838028 2.8338604
-0.68528789 0.19462663 2.8388772
-0.69773 0.14989057 2.8438942
-0.70641929 0.1042366 2.8455665
-0.71003151 0.057916272 2.8388772
-0.55786234 0.009081508 2.8820078
-0.55576277 0.045332789 2.8803151
-0.55131137 0.081349455 2.8786223
-0.54517061 0.11711683 2.8803151
-0.53797138 0.15278769 2.8887787
-0.52534664 0.18691766 2.8803151
-0.51086801 0.22018431 2.8735442
-0.49662668 0.25355327 2.8803151
-0.47907698 0.28532889 2.8803151
-0.45949697 0.31589532 2.8803151
-0.43694013 0.34431171 2.8735442
-0.41312444 0.37157324 2.8701587
-0.38967484 0.39930743 2.8820078
-0.36201578 0.4228197 2.875237
-0.33472043 0.44678953 2.8837004
-0.30386695 0.46597436 2.8735442
-0.27242231 0.48390135 2.8684661
-0.24149485 0.50296432 2.8820078
-0.20813558 0.51730734 2.8803151
-0.17372924 0.5288195 2.875237
-0.13887182 0.53868532 2.8735442
-0.10358912 0.54690146 2.875237
-0.067905344 0.55345839 2.8803151
-0.031694852 0.55572242 2.875237
0.0045382376 0.55759013 2.8803151
0.040880021 0.5570938 2.8853931
0.076543406 0.54968327 2.8667734
0.1124773 0.54514289 2.875237
0.1473607 0.5354057 2.8684661
0.1826358 0.52685052 2.8803151
0.21640095 0.51354903 2.8786223
0.24935633 0.49838078 2.8786223
0.2807588 0.48025173 2.8735442
0.31122792 0.46069506 2.8718514
0.34094486 0.43998697 2.875237
0.36928436 0.417362 2.8786223
0.39565742 0.39245024 2.8786223
0.41961217 0.36522987 2.8735442
0.44326857 0.33774984 2.8786223
0.46403188 0.3080118 2.8769295
0.48337355 0.2773301 2.8786223
0.49921674 0.24471492 2.8718514
0.51529324 0.21221413 2.8786223
0.52583563 0.17750338 2.8667734
0.53753722 0.14325143 2.8735442
0.54668319 0.10816399 2.8786223
0.55483693 0.072662868 2.8904712
0.55479205 0.036174048 2.8718514
0.39925 0 2.9047594
0.39746693 0.025915993 2.8979273
0.39586961 0.051844101 2.9047594
0.39165756 0.077491395 2.9047594
0.3857857 0.10281029 2.9047594
0.37827891 0.12769349 2.9047594
0.36851779 0.15176733 2.8996353
0.3578622 0.17542325 2.8996353
0.34609732 0.1985694 2.9030514
0.33205289 0.22040771 2.8996353
0.3170085 0.2415456 2.8996353
0.30115193 0.26212227 2.9047594
0.28312552 0.28083053 2.9013433
0.26456457 0.29900861 2.9047594
0.24454907 0.31558886 2.9047594
0.22349717 0.33083165 2.9047594
0.20126115 0.34426707 2.9013433
0.17832999 0.35642263 2.8996353
0.15503506 0.36791942 2.9047594
0.13107556 0.3781144 2.9115918
0.1059467 0.38493618 2.9047594
0.080534115 0.39032415 2.8996353
0.054999512 0.39496952 2.9013433
0.029184382 0.39771113 2.9013433
0.0032455749 0.39876726 2.9013433
-0.022653515 0.39719591 2.894511
-0.048649091 0.39651147 2.9064677
-0.074388608 0.39273661 2.9081757
-0.099901497 0.38751903 2.9115918
-0.12439071 0.37863654 2.8996353
-0.14850013 0.36908737 2.894511
-0.1726065 0.35948971 2.9013433
-0.19551569 0.34729281 2.8996353
-0.21808262 0.33442569 2.9047594
-0.23937984 0.31952757 2.9047594
-0.26027334 0.30398864 2.9115918
-0.27835298 0.28523374 2.8996353
-0.29632184 0.26651838 2.8996353
-0.31358808 0.24710946 2.9047594
-0.32919517 0.22631532 2.9064677
-0.34241593 0.20393625 2.8996353
-0.35516852 0.18133166 2.9013433
-0.36621425 0.15783849 2.9013433
-0.37637153 0.1339125 2.9064677
-0.38496453 0.10933265 2.9115918
-0.38896716 0.083560266 2.894511
-0.39427656 0.058177978 2.8996353
-0.39816239 0.032477546 2.9064677
-0.23999581 0.0039069206 2.9222279
-0.23937374 0.019525381 2.9239461
-0.23745647 0.035038192 2.9222279
-0.23467356 0.050413989 2.9222279
-0.23089613 0.065576136 2.9222279
-0.22600721 0.080413066 2.9205093
-0.22042586 0.095003642 2.9222279
-0.21377741 0.10914428 2.9222279
-0.20585918 0.12260571 2.9170728
-0.1979109 0.13605992 2.9239461
-0.18852797 0.14856128 2.9222279
-0.17856734 0.1606074 2.9239461
-0.16773908 0.17188552 2.9239461
-0.15583278 0.18200634 2.9170728
-0.14391427 0.19209877 2.9222279
-0.13111046 0.20105547 2.9222279
-0.11775102 0.2091601 2.9222279
-0.10389256 0.21637835 2.9222279
-0.08959382 0.22267959 2.9222279
-0.074783236 0.22763486 2.9170728
-0.059919473 0.2324283 2.9222279
-0.044669621 0.23583443 2.9222279
-0.029230462 0.23824112 2.9222279
-0.013659392 0.23949726 2.9205093
0.001953525 0.24001966 2.9222279
0.017576531 0.23952472 2.9239461
0.033123899 0.23787357 2.9239461
0.048502371 0.2350761 2.9222279
0.06369476 0.23142219 2.9222279
0.078617215 0.22678754 2.9222279
0.093206502 0.22119178 2.9222279
0.10740078 0.21465862 2.9222279
0.12085498 0.20672837 2.9153543
0.13412863 0.19854389 2.9170728
0.14676262 0.18939613 2.9170728
0.15905523 0.17976286 2.9222279
0.17101568 0.16962944 2.9325378
0.18062556 0.15721627 2.9153543
0.19047207 0.14513077 2.9153543
0.19998173 0.13274245 2.9222279
0.20807241 0.11937919 2.9205093
0.21552563 0.10565017 2.9222279
0.221421 0.0911882 2.9153543
0.22648376 0.076452851 2.9101994
0.2320693 0.061845507 2.9239461
0.23532461 0.046560142 2.9205093
0.23799533 0.031168479 2.9222279
0.23895563 0.015580598 2.9153543
0.079900496 0 2.9240811
0.079778187 0.0052017686 2.9258044
0.079410776 0.010399839 2.930975
0.078427248 0.015517221 2.9258044
0.077387959 0.02062357 2.930975
0.07574825 0.02556991 2.9258044
0.073880494 0.030426335 2.9240811
0.071786553 0.035189606 2.9258044
0.069467381 0.039856125 2.930975
0.066766195 0.044317592 2.9326985
0.063778669 0.048596352 2.934422
0.060268477 0.052457605 2.9240811
0.056761067 0.056300968 2.9258044
0.052977584 0.05987481 2.9258044
0.049084973 0.063343816 2.9326985
0.044754066 0.066247195 2.9258044
0.040443949 0.06918136 2.9326985
0.035835911 0.071624123 2.930975
0.031099772 0.073804013 2.930975
0.026247259 0.075715616 2.9326985
0.021265225 0.077262953 2.9326985
0.016183557 0.078436732 2.930975
0.011052295 0.079370148 2.9326985
0.0058612311 0.079874113 2.930975
0.00065182341 0.080086224 2.930975
-0.0045603462 0.079958931 2.930975
-0.00975319 0.079492785 2.930975
-0.0149047 0.078689754 2.930975
-0.020004803 0.077598847 2.9326985
-0.024996663 0.076088071 2.930975
-0.029894346 0.074300446 2.930975
-0.034665339 0.072197936 2.930975
-0.039289426 0.069789462 2.930975
-0.043747004 0.067085229 2.930975
-0.048047427 0.064134382 2.9326985
-0.052087873 0.060836513 2.930975
-0.055935811 0.05731852 2.930975
-0.059441656 0.053463135 2.9258044
-0.062905237 0.049569741 2.930975
-0.065997183 0.045371789 2.930975
-0.068688057 0.040909268 2.9258044
-0.07137204 0.036439069 2.9326985
-0.073548451 0.031699415 2.930975
-0.075366385 0.02681526 2.9275279
-0.077042021 0.02188048 2.930975
-0.078302421 0.016821397 2.930975
-0.079230979 0.011691027 2.930975
-0.079870701 0.0065149409 2.9326985
0.080078267 -0.0013036036 2.930975
