# .PCD v0.7 - Point Cloud Data file format
VERSION 0.7
FIELDS x y z
SIZE 4 4 4
TYPE F F F
COUNT 1 1 1
WIDTH 480
HEIGHT 1
VIEWPOINT 0 0 0 1 0 0 0
POINTS 480
DATA ascii
-9.8243217 38.108654 0.53758216
-10.832376 39.357277 0.55760968
-11.643964 39.764515 0.56598997
-12.96734 41.751659 0.59719956
-13.410737 40.821335 0.58693749
-14.004469 40.398773 0.5840624
-13.831965 37.896347 1.102338
-14.327369 41.330242 1.1952811
-13.618752 41.454514 1.1923054
-12.730508 40.989117 1.1728038
-12.479607 42.618263 1.2134442
-11.324577 41.145592 1.1661102
-10.440022 40.49696 1.1427592
-9.542901 39.677906 1.1151153
-8.7148447 39.017807 1.0924319
-8.1271973 39.39003 1.0990037
-7.5595489 39.910839 1.1099539
-6.9356651 40.183548 1.1142505
-6.315012 40.51136 1.1203413
-5.6153283 40.325516 1.1125263
-4.8188457 39.275711 1.0812563
-4.2064977 39.608635 1.0883921
-3.5959527 40.058643 1.0990037
-2.9193337 39.783314 1.0900017
-2.2531712 39.506027 1.0812563
-1.6576734 40.712387 1.1133876
-0.96053886 39.331886 1.0750641
-0.32833141 40.340408 1.102338
0.33213717 40.807999 1.1151153
0.98192817 40.207733 1.0990037
1.6028999 39.367153 1.0765985
2.1975491 38.530773 1.0545641
2.8711805 39.127106 1.0720226
3.5507834 39.555462 1.0851989
4.1579471 39.151482 1.0758302
4.7061362 38.357079 1.0559664
5.3550043 38.456039 1.0609502
6.0512004 38.818985 1.0735388
6.7747097 39.251011 1.0883921
7.0772424 37.364487 1.0391377
8.145668 39.479553 1.1015013
8.8478146 39.613132 1.1091
9.5207453 39.585785 1.1125263
10.22722 39.671497 1.1194659
10.78753 39.194336 1.1108094
11.268686 38.482933 1.0957013
12.286227 39.558643 1.1318743
13.495434 41.079144 1.1815091
13.223346 38.145462 1.1031765
13.921031 38.140366 1.6646719
13.528825 39.026676 1.693519
12.912223 39.30389 1.6962023
12.309794 39.634525 1.7015975
11.92878 40.737167 1.7403688
11.209431 40.727226 1.7319187
10.368663 40.220158 1.7029521
9.7126274 40.383598 1.7029521
8.9124231 39.902401 1.67632
8.236105 39.917873 1.6711159
7.8106546 41.236557 1.72077
6.7369227 39.032085 1.6239876
6.18718 39.691307 1.6470064
5.4950066 39.461441 1.6335398
4.9444351 40.29932 1.6646719
4.1769686 39.330589 1.6216322
3.6106713 40.222607 1.6557679
2.9645424 40.399395 1.6608388
2.1697881 38.044025 1.5623493
1.5724969 38.620457 1.5847602
0.97199345 39.80093 1.6323345
0.32474616 39.899906 1.6359601
-0.3202866 39.351982 1.6134944
-0.99508637 40.746532 1.6711159
-1.6269265 39.957245 1.6396143
-2.2472484 39.402176 1.6181244
-2.8011279 38.172462 1.5692885
-3.6024442 40.130959 1.6519952
-4.1769686 39.330589 1.6216322
-5.0182161 40.900669 1.6895123
-5.4007649 38.784664 1.6055239
-6.0313458 38.691616 1.6055239
-7.3996282 42.871639 1.7837378
-7.2875471 38.474796 1.6055239
-8.2106705 39.794598 1.6659552
-8.8301163 39.533894 1.6608388
-9.436327 39.234787 1.6545074
-10.028029 38.898838 1.6470064
-11.066015 40.206154 1.7097602
-11.49874 39.268574 1.6776276
-12.358963 39.792835 1.7083941
-13.088708 39.841103 1.7193861
-13.880521 40.041218 1.7375438
-15.018883 41.148224 2.3956473
-14.099943 40.674187 2.3543737
-13.143573 40.008102 2.303128
-12.156936 39.142357 2.2416
-11.341496 38.731579 2.2072101
-10.859426 39.455551 2.2380965
-10.88951 42.240532 2.3857012
-9.5694084 39.788116 2.2380965
-8.660141 38.772888 2.1727715
-8.2116404 39.799301 2.2225044
-7.5685873 39.958553 2.2242224
-6.9332776 40.169716 2.2293985
-6.0878787 39.054279 2.1617057
-5.3972363 38.759323 2.1402326
-4.5978732 37.474689 2.0648904
-4.1592336 39.163597 2.1539345
-3.5288188 39.310776 2.1585836
-2.7939541 38.074699 2.0879354
-2.1537361 37.762577 2.0686228
-1.6080323 39.493206 2.1617057
-0.9430483 38.615692 2.1125536
-0.32550177 39.992744 2.1873085
0.34163317 41.974724 2.2957084
0.98157018 40.193073 2.1988478
1.5631859 38.391781 2.1014178
2.189312 38.386349 2.1027927
2.8659475 39.05579 2.1417365
3.5212183 39.226109 2.1539345
4.2268386 39.800167 2.1889448
4.7134814 38.416943 2.1168094
5.2422843 37.646561 2.0787873
6.0231833 38.639252 2.1387334
6.6009893 38.244518 2.1225512
7.3346691 38.723576 2.1554797
8.0337934 38.937332 2.1743696
8.5484877 38.272999 2.1447585
9.1898527 38.209984 2.1493258
9.9468918 38.584103 2.1791902
10.436134 37.91761 2.1508574
11.6833 39.898849 2.2737296
12.460419 40.119499 2.297559
12.742605 38.78759 2.232867
13.393119 38.635208 2.2363498
13.763114 37.70771 2.7457151
13.6164 39.279305 2.8436348
12.954566 39.432781 2.839102
12.223395 39.356342 2.8188984
11.401688 38.937134 2.7752106
11.330119 41.165726 2.9205186
10.051015 38.987995 2.7540455
9.7603149 40.581879 2.8550327
8.9620876 40.124752 2.8122363
8.0152588 38.847496 2.7132123
7.4929733 39.559349 2.7540455
6.943635 40.229725 2.7924767
6.096034 39.106594 2.7072692
5.3158712 38.175014 2.6364377
4.6783361 38.130497 2.6277554
4.1206517 38.800304 2.6689386
3.5970657 40.071041 2.7519555
2.9093127 39.646755 2.7192039
2.1454799 37.617817 2.5773108
1.5538269 38.161922 2.61251
0.95594513 39.143787 2.6783068
0.31912723 39.209538 2.6820946
-0.31104639 38.216686 2.6141796
-0.96417898 39.480946 2.7013757
-1.5722542 38.614494 2.6434925
-2.2156043 38.847343 2.6615496
-2.9071703 39.617554 2.7172012
-3.6302624 40.440849 2.777353
-4.1007829 38.61322 2.6560698
-4.8163919 39.255711 2.7052994
-5.5072055 39.549046 2.7313309
-6.096034 39.106594 2.7072692
-6.7814898 39.290295 2.7272675
-7.5216036 39.710503 2.7645686
-8.044838 38.99086 2.7232251
-8.9130144 39.905045 2.7968376
-9.1821308 38.177876 2.6859055
-10.089418 39.136967 2.7645686
-11.014265 40.018131 2.839102
-11.366672 38.817551 2.7666876
-11.655006 37.526268 2.6878195
-12.811808 38.998234 2.8078156
-13.703938 39.531826 2.8619161
-14.517393 39.774258 3.4778156
-13.484082 38.89761 3.381521
-13.140263 39.998028 3.4581301
-12.377284 39.851826 3.4276152
-11.774212 40.209316 3.441421
-10.665211 38.749912 3.3012168
-9.9063597 38.42688 3.259526
-9.6881609 40.281872 3.4030452
-8.8623743 39.678322 3.3394263
-7.9953141 38.750832 3.2499816
-7.6919379 40.609787 3.394938
-6.5445566 37.917561 3.1605453
-6.0460191 38.785744 3.2242799
-5.4491124 39.131863 3.2452486
-4.655355 37.943192 3.1399698
-4.2316403 39.845383 3.2912476
-3.5401864 39.437412 3.252358
-2.8727791 39.148888 3.2242799
-2.2042582 38.648411 3.1796839
-1.5685357 38.523167 3.1668599
-0.93209803 38.167301 3.1359422
-0.31970796 39.280888 3.2265828
0.31570593 38.789181 3.1861932
0.96318823 39.440376 3.2405419
1.5685357 38.523167 3.1668599
2.1576073 37.830456 3.1123891
2.7579575 37.584156 3.0954092
3.454066 38.478039 3.1732395
4.0635929 38.263035 3.1605453
4.692091 38.242607 3.1647477
5.2860107 37.960575 3.1481125
5.9746008 38.327591 3.1861932
6.6067257 38.277756 3.1905684
7.2640972 38.35099 3.2061048
7.8383875 37.990257 3.1861932
8.5026112 38.067604 3.2038641
9.1989574 38.247841 3.2312088
9.913661 38.4552 3.2619283
10.822249 39.320484 3.3498254
11.143694 38.056076 3.2571301
12.153279 39.130585 3.3655818
12.572668 38.270309 3.3087559
13.462817 38.836266 3.376188
14.098278 38.625984 3.9435124
13.238567 38.189369 3.8764203
12.904963 39.281792 3.965457
12.402046 39.931553 4.0101376
12.282086 41.943722 4.1915755
10.54104 38.298767 3.8096697
10.404557 40.359394 3.9972672
9.6533346 40.137074 3.9591594
8.8242693 39.507717 3.882395
8.2761393 40.111904 3.9280078
7.6221423 40.241302 3.9280078
6.5366039 37.871487 3.6858118
6.0957212 39.104591 3.7956622
5.4785538 39.343292 3.8096697
4.7916961 39.054428 3.7736456
4.1464238 39.042976 3.7655177
3.6137612 40.25703 3.8764203
2.8257725 38.508305 3.7031124
2.2420945 39.311813 3.7763705
1.586044 38.953171 3.7389431
0.97707081 40.008835 3.8382363
0.32116672 39.460117 3.7845922
-0.31155363 38.279007 3.6713128
-0.98907489 40.500374 3.8853922
-1.5838305 38.898811 3.7337253
-2.1883283 38.369099 3.6858118
-2.7888942 38.005745 3.6547842
-3.5179505 39.189705 3.7736456
-4.1114154 38.713333 3.7337253
-4.8267384 39.340038 3.8012426
-5.5321584 39.728245 3.8469453
-6.1921678 39.723301 3.8557169
-6.9012141 39.983948 3.8914056
-7.4705043 39.440723 3.8498623
-7.872282 38.154537 3.73633
-8.9069576 39.87793 3.9187753
-9.323451 38.765465 3.8238626
-10.105555 39.199558 3.882395
-10.834445 39.364792 3.9157097
-11.638034 39.744267 3.9717765
-12.062891 38.839554 3.9004731
-12.813308 39.0028 3.9372933
-13.772811 39.730507 4.0328536
-14.706106 40.29129 4.7055883
-13.809325 39.835838 4.6255288
-13.084704 39.828915 4.5993824
-12.597328 40.560314 4.659544
-11.557265 39.468437 4.5118985
-10.887462 39.557415 4.5012126
-10.122635 39.265812 4.4486909
-9.3453646 38.856579 4.3845086
-8.6596575 38.770725 4.3583364
-8.2129784 39.805782 4.4590702
-7.5698662 39.965305 4.4625444
-6.6448784 38.498802 4.2861476
-6.2994127 40.411289 4.4870567
-5.4749212 39.317204 4.3551025
-4.8128891 39.227161 4.3358755
-4.0775023 38.394009 4.2358866
-3.4710238 38.666943 4.2592006
-2.7849805 37.952412 4.1749468
-2.216758 38.867577 4.2710838
-1.6308038 40.052471 4.3977895
-0.95652962 39.167717 4.2983637
-0.31487983 38.687679 4.2445583
0.31552947 38.767494 4.253315
0.94847244 38.837795 4.262157
1.5761434 38.710011 4.2503867
2.2090607 38.732616 4.2562532
2.7727034 37.785103 4.1565423
3.4496844 38.429226 4.2330155
4.0747385 38.367985 4.2330155
4.8235173 39.313789 4.3454504
5.503602 39.523167 4.3779168
5.8354006 37.434608 4.1565423
6.6638174 38.608532 4.2983637
7.068532 37.318501 4.1670008
7.9000783 38.289253 4.2891879
8.6024313 38.514515 4.329535
9.2349386 38.397446 4.3327007
9.8087053 38.048077 4.3107252
10.130798 36.808231 4.188385
11.197267 38.239029 4.371357
11.853755 38.166191 4.3845086
12.917686 39.320518 4.5406737
13.209836 38.106487 4.424726
13.827581 37.884338 4.982841
13.968505 40.295025 5.2693067
12.587134 38.314346 4.982841
12.46522 40.13496 5.1925364
11.781636 40.234669 5.1799364
11.071422 40.2258 5.1549077
10.18568 39.510365 5.0413084
9.7956657 40.728859 5.1757493
8.8388271 39.572895 5.0099025
8.1367483 39.436321 4.9751835
7.3540845 38.82608 4.8824472
6.681994 38.71384 4.8540111
5.9908586 38.431889 4.8057942
5.3093801 38.128399 4.7564054
4.8122931 39.222301 4.8824472
4.0573063 38.203842 4.7468171
3.4034824 37.914539 4.7033639
2.8445754 38.764542 4.8024278
2.2273657 39.053566 4.8331013
1.6356704 40.171997 4.9675603
0.92007613 37.675034 4.656323
0.31791002 39.059986 4.8262129
-0.30653155 37.661972 4.6534758
-0.94961119 38.884426 4.8057942
-1.5925363 39.112625 4.8365612
-2.1949909 38.48592 4.7628517
-2.8689098 39.096161 4.8435106
-3.4078796 37.963524 4.7094407
-4.0877619 38.490612 4.7824483
-4.7636561 38.82589 4.8331013
-5.5493331 39.851582 4.9713678
-6.2211509 39.909233 4.9905319
-6.796803 39.379017 4.9374118
-7.4033804 39.086338 4.9151754
-7.7684717 37.651398 4.7500024
-8.9082241 39.883595 5.0492368
-9.4670725 39.362621 5.00213
-9.6894941 37.585655 4.7957258
-10.895936 39.588207 5.0732007
-11.137874 38.036198 4.8968987
-11.952624 38.484524 4.9790082
-12.815392 39.009144 5.0732007
-13.416794 38.703503 5.0611858
-14.454104 39.600864 5.7942433
-14.082014 40.622467 5.9093957
-13.051155 39.726791 5.7474322
-12.513995 40.292004 5.7989626
-11.261238 38.457497 5.5078197
-11.399667 41.418415 5.9045177
-10.523707 40.821575 5.7942433
-9.2998686 38.667416 5.4662671
-8.6176834 38.582802 5.4337535
-7.9708605 38.632313 5.4217339
-7.2982321 38.531208 5.3901563
-6.5945997 38.2075 5.3291488
-6.2880697 40.33852 5.6113605
-5.472743 39.301563 5.4539967
-4.8037229 39.152454 5.4217339
-4.1905928 39.458874 5.4539967
-3.3373075 37.177353 5.1304569
-2.7991595 38.145634 5.2570939
-2.2748287 39.885757 5.4910803
-1.5185671 37.29594 5.1304569
-0.96446097 39.492489 5.4297361
-0.31360433 38.530964 5.2961345
0.31940317 39.243439 5.3940654
0.93072879 38.111233 5.2398305
1.5740894 38.659565 5.318038
2.1910818 38.417381 5.2889285
2.7917929 38.045246 5.243259
3.4762971 38.725689 5.3441257
4.1004014 38.609627 5.3366141
4.7966704 39.094975 5.413774
5.1979971 37.328522 5.1801915
5.6241574 36.079468 5.0188971
6.5403924 37.893436 5.2853432
7.1807489 37.910954 5.3033886
8.3953781 40.689823 5.7104888
8.8575525 39.656731 5.5849991
9.3138723 38.725639 5.4744978
9.8543997 38.225327 5.4257298
10.553551 38.344219 5.4662671
11.126294 37.996658 5.4418192
11.968197 38.534664 5.5460405
12.742167 38.786251 5.6113605
13.531899 39.035549 5.678545
14.262947 39.077137 6.2976742
13.735668 39.623363 6.3488264
13.23917 40.299095 6.4217153
12.530136 40.343971 6.3955145
11.587421 39.571423 6.2423162
11.510092 41.819622 6.5665374
10.195561 39.548695 6.183075
9.5731745 39.803776 6.1977682
8.8818235 39.765396 6.1684618
8.2204437 39.841969 6.1587653
7.3922548 39.027603 6.0134816
6.8975844 39.962917 6.139483
6.063602 38.89854 5.9600086
5.4990959 39.49081 6.0362401
4.5287423 36.91124 5.6299329
4.1155739 38.752495 5.8997722
3.5460794 39.503059 6.0044556
2.8726971 39.147774 5.9425564
2.1882513 38.367752 5.8179727
1.5888473 39.022022 5.9124789
0.95347679 39.042713 5.9124789
0.31428075 38.614075 5.8460178
-0.32426119 39.840321 6.0316663
-0.96830952 39.650078 6.0044556
-1.5666598 38.477097 5.8299136
-2.2669096 39.746906 6.0271039
-2.7954974 38.09573 5.7828588
-3.5095234 39.095829 5.9425564
-4.1729965 39.293186 5.9820886
-4.7872181 39.017933 5.9512587
-5.3221159 38.219856 5.8419724
-6.0370417 38.728157 5.9339023
-6.9356041 40.183193 6.1733236
-7.4371767 39.264771 6.050025
-8.0753031 39.138512 6.050025
-8.5193739 38.142651 5.916739
-9.3520975 38.884575 6.0546412
-10.053062 38.995941 6.0966568
-10.837944 39.377502 6.183075
-11.881498 40.575703 6.4007397
-12.200747 39.283417 6.2273903
-12.737123 38.770897 6.178195
-13.658026 39.399384 6.3129387
-14.488708 39.695671 6.9890413
-13.851994 39.958923 6.9947619
-12.790417 38.933125 6.7778506
-12.291965 39.577118 6.854219
-11.788365 40.257652 6.9379244
-11.131532 40.444199 6.9379244
-10.271003 39.841331 6.8049226
-9.2614841 38.507816 6.5505381
-8.672657 38.828926 6.5802732
-7.997159 38.759773 6.5456247
-7.1708641 37.858765 6.3729072
-6.6281948 38.402142 6.4453578
-6.1654201 39.551712 6.6205778
-5.4624162 39.227402 6.5505381
-4.728796 38.541767 6.422339
-4.0525031 38.158615 6.3466592
-3.4379199 38.298168 6.3597193
-2.9072716 39.618938 6.5703139
-2.1689043 38.02853 6.2998743
-1.557955 38.263309 6.3337274
-0.9381302 38.414307 6.3553514
-0.31971645 39.281929 6.4971714
0.31513995 38.719639 6.4041696
0.96190327 39.38776 6.5164018
1.5506564 38.084057 6.3040557
2.1820383 38.258816 6.3380237
2.8317606 38.589909 6.3996615
3.4261916 38.167519 6.3380237
4.0525031 38.158615 6.3466592
4.728796 38.541767 6.422339
5.1119318 36.710457 6.1302361
5.9265757 38.019508 6.3641009
6.5536885 37.97047 6.3729072
7.3762794 38.94326 6.5554643
7.8633585 38.111286 6.4361095
8.4645033 37.896988 6.422339
9.125926 37.944187 6.4546595
10.062495 39.032528 6.6667786
10.704816 38.89381 6.6719661
11.13852 38.038406 6.5554643
12.401716 39.930492 6.9154191
11.818654 35.975143 6.2628975
13.595555 39.219177 6.8652701
13.09046 35.864796 6.8515601
