# .PCD v0.7 - Point Cloud Data file format
VERSION 0.7
FIELDS x y z
SIZE 4 4 4
TYPE F F F
COUNT 1 1 1
WIDTH 1532
HEIGHT 1
VIEWPOINT 0 0 0 1 0 0 0
POINTS 1532
DATA ascii
2.0507159 2.7373242 0.66214383
11.701608 14.126078 3.5511172
13.523939 14.792325 3.8801246
13.335754 13.227656 3.6363184
14.071265 12.656006 3.6638448
0.091335922 0.074414775 0.022807686
0.094859496 0.069867626 0.022807686
0.098156914 0.065153897 0.022807686
0.10122029 0.060284831 0.022807686
0.10404235 0.055272035 0.022807686
0.10661636 0.050127462 0.022807686
0.10893616 0.044863369 0.022807686
0.11099625 0.03949232 0.022807686
0.11279169 0.034027111 0.022807686
0.11431822 0.028480772 0.022807686
0.11557219 0.022866532 0.022807686
0.11655062 0.017197775 0.022807686
0.11725117 0.011488013 0.022807686
0.11767216 0.005750862 0.022807686
0.1178126 0 0.022807686
0.11677937 0 0.02761483
0.11664016 0.0057004262 0.02761483
22.490791 2.2035987 5.3438663
22.270102 3.286093 5.3232346
22.083147 4.3692603 5.3232346
21.804468 5.4322758 5.3137121
21.564709 6.5056629 5.3264089
0.11002279 0.039145965 0.02761483
0.10798077 0.044469912 0.02761483
0.10568132 0.049687836 0.02761483
0.10312989 0.054787293 0.02761483
0.10033258 0.059756126 0.02761483
0.097296059 0.064582489 0.02761483
0.094027564 0.069254875 0.02761483
0.090534896 0.073762141 0.02761483
15.290174 13.752319 4.8629875
13.314098 13.206175 4.4344816
12.649056 13.835388 4.4328942
11.534762 13.924663 4.2757754
10.797034 14.412032 4.2583179
10.031817 14.849597 4.2376862
1.7097306 2.8182671 0.77948415
1.5445479 2.8511562 0.76678765
1.3744818 2.8626504 0.75091708
1.2200761 2.8954074 0.74298179
1.0565759 2.8947704 0.72869825
0.89609605 2.88521 0.71441472
0.75251484 2.9190133 0.71282762
0.61591101 2.9851315 0.72076297
0.4601582 2.9519556 0.70647943
0.31905785 3.0042682 0.71441472
0.17279257 3.0296624 0.71758884
0.024643116 3.0277741 0.71600175
-0.13192028 3.2399564 0.76678765
-0.26711497 2.9756405 0.70647943
-0.412974 2.9657018 0.70806646
-0.55849743 2.9486017 0.7096535
-0.70490247 2.9308753 0.71282762
-0.84901488 2.8994136 0.71441472
-1.0137143 2.9242673 0.73187238
-1.1577551 2.8775246 0.73345941
-1.3389288 2.9090302 0.75726533
-1.5165373 2.9116337 0.77631003
-1.6297592 2.7877829 0.76361352
-1.8005582 2.7611227 0.77948415
-1.9843609 2.7406087 0.80011588
-2.1619384 2.6980901 0.81757355
-2.380012 2.6898694 0.84931475
-4.5568833 4.6695275 1.5428596
-4.7400575 4.4049726 1.5301632
-4.5644197 3.8440921 1.4111336
-4.6238399 3.523149 1.3746313
-4.7073469 3.2362101 1.3508254
-4.6998382 2.903795 1.3063878
-5.0004797 2.7617702 1.3508254
-4.8822503 2.3932681 1.285756
-4.9439473 2.1308432 1.2730595
-5.0294962 1.8822663 1.2698854
-5.0962019 1.6283861 1.2651242
-5.1631289 1.3759525 1.2635372
-5.3488126 1.1490642 1.2936913
-5.3587899 0.88007343 1.284169
-5.3553538 0.61286384 1.2746466
-5.5128303 0.35945252 1.3063878
-5.4432778 0.088611774 1.287343
-5.4457378 0.088651821 1.5260264
-5.3421445 0.34832329 1.499977
-5.3913484 0.616983 1.5204444
-5.2696147 0.86542821 1.4962556
-5.2275805 1.1230204 1.4981164
-5.0831113 1.3546281 1.4739276
-5.1374421 1.6415635 1.5111411
-5.1444798 1.9252983 1.5390511
-4.9345932 2.1268117 1.505559
-4.8725967 2.388536 1.5204444
-5.0001593 2.7615933 1.600453
-4.6560144 2.8767183 1.5334691
-4.5975986 3.1607602 1.5632397
-4.4906511 3.4216654 1.5818464
-4.9227257 4.1458526 1.8032658
-4.7533998 4.4173717 1.8181511
-4.4578958 4.5680928 1.7883805
-2.3857625 2.6963682 1.0087608
-2.151638 2.6852353 0.96410483
-4.1444588 5.7239285 1.9800292
-1.796114 2.7543077 0.92130947
-1.6226579 2.775636 0.90084213
-1.4698961 2.8220861 0.8915388
-1.3553766 2.9447656 0.90828478
-1.1554829 2.8718774 0.8673501
-1.0052184 2.8997591 0.85990745
-0.84754246 2.8943851 0.84502208
-0.71145827 2.9581332 0.85246474
-0.55632591 2.9371374 0.83757943
-0.41137448 2.9542148 0.83571875
-0.26489687 2.9509313 0.83013678
-0.12026522 2.9537086 0.8282761
0.024113467 2.9626987 0.83013678
0.16832669 2.9513597 0.8282761
0.31289399 2.9462285 0.83013678
0.46554261 2.9864969 0.84688276
0.59869224 2.9016776 0.83013678
0.75619787 2.9332998 0.84874344
0.90045112 2.8992321 0.85060412
1.0477306 2.8705366 0.85618609
1.2252839 2.9077663 0.88409609
1.3571388 2.8265297 0.87851411
1.5788999 2.9145682 0.92875212
1.7365105 2.8624103 0.93805546
1.8704476 2.7687299 0.93619478
10.699304 14.281581 4.9998922
11.828501 14.279262 5.1952624
12.457652 13.626033 5.1729345
13.093793 12.987657 5.1673522
13.855346 12.461803 5.2213116
0.08958187 0.072985679 0.032375611
0.093037769 0.068525851 0.032375611
20.168125 13.387054 6.7824116
0.099276416 0.059127092 0.032375611
0.10204428 0.054210566 0.032375611
20.181486 9.4886627 6.2484002
20.608324 8.4871616 6.244679
20.904198 7.437686 6.2167687
21.229622 6.4045734 6.2130475
21.516945 5.3606434 6.2130475
21.746452 4.3026438 6.2111869
21.923986 3.2350216 6.2093263
22.049154 2.1603281 6.2074656
22.227818 1.0863156 6.2353754
22.300833 0 6.2484002
21.947433 0 7.1311531
21.921268 1.0713341 7.1311531
21.790619 2.1349974 7.1141038
21.621494 3.190387 7.1013169
21.446419 4.2432804 7.1034484
21.220087 5.2866855 7.1055794
20.943007 6.3181071 7.1077104
20.609631 7.33288 7.1077104
20.287767 8.3551464 7.1290221
19.861671 9.3382969 7.1311531
19.445875 10.330534 7.1545959
0.098053575 0.058398794 0.037082039
0.095086023 0.06311553 0.037082039
0.091891773 0.067681782 0.037082039
18.474451 15.051822 7.7427936
13.635916 12.264443 5.9590197
12.858002 12.753776 5.8844295
12.144878 13.283924 5.8481998
10.50287 12.678971 5.3495102
10.2883 13.732966 5.5754123
9.4147511 13.936184 5.4645925
1.6981109 2.7991138 1.0637643
1.534458 2.8325307 1.0467151
1.3659729 2.8449287 1.0254036
1.2000035 2.8477726 1.0040921
1.0528162 2.88447 0.99769866
0.89325064 2.8760486 0.97851831
0.75015807 2.9098713 0.97638714
0.61384928 2.9751391 0.9870429
0.45374686 2.9108262 0.95720679
0.31042525 2.9229829 0.95507562
0.16700028 2.928103 0.95294446
0.023923213 2.9393232 0.95507562
-0.12145225 2.982862 0.96999371
-0.26280683 2.9276485 0.95507562
-0.40721196 2.9243226 0.95933795
-0.55801785 2.94607 0.97425598
-0.71343118 2.9663365 0.99130523
-0.85000545 2.9027963 0.98278058
-0.99713314 2.8764358 0.98917407
-1.1559397 2.8730125 1.0062233
-1.3057734 2.8369949 1.0147479
-1.4578505 2.7989595 1.0254036
-1.6225325 2.7754214 1.044584
-1.7990694 2.7588398 1.0701578
-1.9739069 2.7261705 1.0936005
-2.1497433 2.6828709 1.1170431
-5.1684666 5.8413568 2.5342591
-4.8381763 4.9577737 2.2508159
-5.0696111 4.7112298 2.2486846
-4.8169379 4.0567598 2.0462253
-4.9987869 3.808841 2.0419631
-4.6274467 3.1812801 1.8245856
-4.7270012 2.9205775 1.8054051
-5.2084212 2.8766167 1.9332743
-5.2542887 2.5756404 1.901307
-5.0123491 2.1603243 1.7734379
-4.9459682 1.8510063 1.7158967
-5.017931 1.6033763 1.7116345
-5.1979585 1.3852345 1.747864
-5.1760154 1.1119428 1.7201591
-5.1464553 0.84520173 1.6945852
-5.1424785 0.58850253 1.6817983
-5.1716204 0.33720464 1.6839296
-5.2671714 0.085744917 1.7116345
-5.2120366 0.084847368 1.9331944
-5.1500616 0.33579892 1.9140099
-5.1275306 0.58679187 1.9140099
-5.1310592 0.84267324 1.9283984
-5.1280622 1.1016412 1.9451847
-5.1493998 1.3722937 1.9763595
-6.0740981 1.9408528 2.3648448
-4.9304867 1.8452122 1.9523789
-4.8523517 2.0913656 1.959573
-4.7560925 2.3314257 1.9643692
-4.6422777 2.5639348 1.9667673
-4.6711154 2.8860486 2.0363109
-4.5832815 3.1509178 2.0626895
-5.3806643 4.0998135 2.5087283
-4.7586699 4.0076871 2.3072915
-5.1589217 4.7942266 2.6118448
-4.8103609 4.9292707 2.5542915
-4.5168777 5.1049361 2.5279129
-2.2082782 2.7559221 1.3096994
-2.0028594 2.7661569 1.2665343
-1.7806766 2.7306347 1.2089809
-1.6713691 2.858959 1.2281654
-1.4611182 2.8052335 1.1730101
-1.2954073 2.8144729 1.1490295
-1.1419967 2.8383582 1.1346412
-0.99996686 2.8846102 1.132243
-0.8670522 2.9610114 1.1442333
-0.69728786 2.8992147 1.1058644
-0.54530841 2.8789699 1.0866799
-0.40234169 2.8893476 1.0818839
-0.26371312 2.9377446 1.0938741
-0.11815531 2.9018893 1.0770878
0.023953086 2.9429934 1.0914761
0.1701601 2.983506 1.1082625
0.31081289 2.9266329 1.0914761
0.4542979 2.9143612 1.0938741
0.59732354 2.8950438 1.0962722
0.74115747 2.874958 1.1010684
0.90746194 2.9218054 1.1346412
1.04457 2.8618772 1.129845
1.198089 2.8432291 1.1442333
1.3466443 2.804673 1.1538256
1.5312254 2.8265634 1.1921946
3.9480042 6.5077682 2.8228741
8.9267979 13.213892 5.9139705
9.2742796 12.379438 5.7365146
9.9582586 12.021521 5.7892718
10.712089 11.716756 5.8875918
11.271256 11.179893 5.8875918
12.707393 11.42931 6.3384271
18.308283 14.916439 8.7580671
18.920868 13.935938 8.7149029
0.093740553 0.06222244 0.041726209
0.096666113 0.057572447 0.041726209
19.25066 10.226828 8.0842133
19.633293 9.2309208 8.0458441
20.006672 8.2393827 8.0242615
20.293636 7.220449 7.9882908
20.646662 6.2287059 7.9978833
20.888449 5.2040625 7.9834948
21.181009 4.1907682 8.0074749
21.289961 3.1414671 7.9810967
21.450104 2.1016343 7.9930868
21.656292 1.0583842 8.041048
21.643341 0 8.02666
21.35998 0 8.9331684
21.239193 1.0379996 8.8932543
21.118879 2.0691817 8.8746281
20.992699 3.0976043 8.8746281
20.779018 4.1112323 8.8586626
20.553564 5.1206307 8.8586626
20.291288 6.1214962 8.8639841
20.010248 7.1196198 8.8826103
19.656509 8.0951748 8.8905935
19.330048 9.0883446 8.9331684
0.097768232 0.051938936 0.046300326
0.095116355 0.056649443 0.046300326
0.092237696 0.061224885 0.046300326
0.089139134 0.06565436 0.046300326
0.085828044 0.069927298 0.046300326
0.082312323 0.074033514 0.046300326
15.720748 15.593317 9.2604637
14.87215 16.266983 9.2178888
11.381548 13.739703 7.4616699
10.567592 14.105769 7.3711977
9.5993128 14.209381 7.1716275
8.1418352 13.42075 6.5649338
1.5187992 2.8036253 1.3335291
1.3498403 2.8113291 1.3042588
1.1862931 2.8152359 1.2776495
1.0300049 2.8219724 1.256362
0.88725197 2.856734 1.2510401
0.74198174 2.8781552 1.2430573
0.59031856 2.8610928 1.2217698
0.44995448 2.8864977 1.2217698
0.30784571 2.8986938 1.2191088
0.16598293 2.9102652 1.2191088
0.023672635 2.908536 1.2164478
-0.12040258 2.9570823 1.2377354
-0.26460502 2.94768 1.2377354
-0.40378898 2.8997409 1.2244307
-0.54603863 2.8828251 1.2270917
-0.68908453 2.8651068 1.2324135
-0.83169538 2.8402667 1.2377354
-0.98810321 2.8503871 1.2616838
-1.1640615 2.893199 1.3042588
-1.2799597 2.7809105 1.2803104
-1.4406327 2.7659028 1.3042588
-1.6060402 2.7472107 1.3308682
-1.7764566 2.7241633 1.3601385
-1.9707493 2.7218096 1.4053745
-4.4804235 5.5915499 2.9966154
-4.9461856 5.5901365 3.1216795
-4.8576655 4.9777446 2.9088047
-5.0901957 4.7303591 2.9061437
-4.6823788 3.9434357 2.5602217
-4.4138145 3.3631194 2.3207371
-4.5255313 3.1112156 2.2967887
-4.7531972 2.9367628 2.3367028
-4.6569648 2.5720468 2.2249434
-4.6969814 2.3024497 2.1876903
-4.8622026 2.0956113 2.2142997
-4.8633585 1.8200899 2.1717248
-4.9039817 1.5669661 2.1530981
-4.9684768 1.3240784 2.1504371
-5.1018343 1.0960068 2.1823685
-5.1115818 0.8394745 2.1664028
-5.1401448 0.58823544 2.1637418
-5.2071748 0.33952287 2.1823685
-5.3066044 0.086386845 2.2196217
-5.3111906 0.086461514 2.4818861
-5.5375667 0.36106539 2.5928216
-5.6064553 0.64159977 2.6366117
-5.5622878 0.91349387 2.6336925
-5.1139932 1.0986189 2.4439347
-4.9455948 1.3179805 2.3913863
-4.839653 1.5464113 2.3738701
-4.7642498 1.7829989 2.3767896
-4.7518668 2.0480564 2.4176605
-4.6911116 2.2995725 2.4410152
-4.5896773 2.5348837 2.4497733
-5.3322048 3.2945025 2.9285469
-4.9384837 3.3951123 2.8000953
-4.9905138 3.8025374 2.9314661
-4.6173425 3.8886631 2.8205309
-4.5227113 4.2029915 2.8847566
-5.3725767 5.505384 3.5941589
-5.0477495 5.7049232 3.5591266
-4.3295736 5.4032903 3.2350788
-1.9976248 2.7589273 1.5914842
-1.7820722 2.7327747 1.5243391
-1.6118636 2.7571719 1.4922262
-1.4436048 2.7716088 1.4601134
-1.2778552 2.7763383 1.4280005
-1.133812 2.8180156 1.4192425
-0.9764843 2.81687 1.3929683
-0.84484214 2.8851633 1.4046457
-0.691311 2.8743641 1.3812909
-0.53855073 2.8432927 1.3520974
-0.3982555 2.8600032 1.3491781
-0.25761494 2.8698111 1.3462586
-0.11722191 2.8789651 1.3462586
0.023399742 2.8750072 1.3433393
0.16371141 2.8704376 1.3433393
0.30429262 2.8652377 1.3462586
0.44379255 2.8469684 1.3462586
0.58475953 2.8341501 1.3520974
0.73176622 2.8385293 1.3696135
0.87501264 2.8173265 1.3783715
1.0264896 2.8123415 1.3988069
1.174678 2.7876716 1.4134037
1.352625 2.8171291 1.4601134
7.2444224 13.372831 7.1061382
7.8691182 12.971211 7.0886221
9.601676 14.21288 8.0140562
9.2463017 12.342093 7.2053962
13.791732 16.649256 10.101392
14.655457 16.029966 10.148102
15.376107 15.25147 10.118908
0.080832988 0.072702974 0.050796706
0.084285527 0.068670548 0.050796706
0.08753711 0.064474404 0.050796706
0.090579987 0.060124543 0.050796706
0.093406908 0.055631328 0.050796706
0.096011125 0.051005479 0.050796706
0.098386429 0.046258025 0.050796706
19.366791 7.9758592 9.7861023
19.680054 7.0021372 9.7598276
19.986429 6.0295258 9.7539892
20.250864 5.045217 9.75107
20.472998 4.0506845 9.75107
20.640139 3.0455821 9.7481508
20.7642 2.034431 9.7481508
20.888681 1.0208696 9.7715054
0.10871842 0 0.050796706
0.10654622 0 0.055207804
0.10641921 0.005200909 0.055207804
20.446838 2.0033367 10.645429
20.288328 2.99367 10.626391
20.081968 3.9733174 10.607355
19.858135 4.9473743 10.604182
19.604687 5.9143615 10.610528
19.338768 6.8807082 10.63591
19.0308 7.8374877 10.664466
0.096420668 0.045333788 0.055207804
0.094092824 0.049986392 0.055207804
0.091540635 0.054519814 0.055207804
0.088770203 0.058923256 0.055207804
0.085788116 0.063186206 0.055207804
0.082601503 0.067298517 0.055207804
0.079217948 0.071250372 0.055207804
0.075645521 0.075032346 0.055207804
0.071892746 0.078635432 0.055207804
0.067968562 0.082051039 0.055207804
12.369491 16.510969 10.689849
0.059643783 0.088287696 0.055207804
7.9151597 13.047104 7.907249
5.7696648 10.650505 6.2763977
1.3309004 2.771883 1.5932528
1.2011416 2.8504732 1.6027714
1.0164779 2.7849116 1.5361413
0.88658947 2.8546009 1.5488328
0.72478861 2.8114629 1.5044127
0.58297479 2.8255 1.494894
0.43869811 2.8142872 1.4758569
0.30015287 2.8262575 1.472684
0.16148646 2.8314266 1.4695112
0.023031889 2.8298109 1.4663383
-0.11861656 2.9132175 1.5107584
-0.2606799 2.9039545 1.5107584
-0.39283195 2.8210549 1.4758569
-0.53234875 2.8105493 1.4822026
-0.67033917 2.7871664 1.4853755
-0.80731261 2.7569988 1.4885484
-0.95897979 2.7663743 1.5171041
-1.1157297 2.7730732 1.5488328
-1.2881665 2.7987411 1.5964257
-1.4006182 2.6890781 1.5710428
-1.5642066 2.6756523 1.6059443
-1.7498112 2.6833031 1.6598829
-1.9433477 2.6839652 1.7169944
-4.2086082 5.2523255 3.4874516
-4.8373384 5.4671187 3.7825279
-4.8076282 4.9264703 3.5667732
-4.9167819 4.5692039 3.4779329
-5.3400397 4.4973087 3.6175389
-5.3827329 4.1013899 3.5064888
-4.920548 3.3827817 3.0940168
-5.402782 3.3381088 3.2907341
-5.3019991 2.9282999 3.1384368
-5.2241869 2.5608847 3.0146952
-5.0899172 2.1937566 2.8719163
-4.7550836 1.7795684 2.6307788
-4.8304491 1.5434704 2.6276059
-5.0183702 1.3373748 2.6910632
-5.2333255 1.1242546 2.7735577
-5.1248636 0.84165573 2.6910632
-5.0016637 0.57238775 2.6085687
-5.5919061 0.36460847 2.903645
-5.8050818 0.094501622 3.0083494
-5.6590233 0.092123918 3.2334025
-5.0980306 0.33240634 2.9186661
-4.9507899 0.56656575 2.8468242
-4.917232 0.80755645 2.8468242
-4.9831886 1.0705186 2.911824
-6.4409981 1.7164992 3.8081384
-5.2087088 1.6643354 3.1239288
-5.1212573 1.9166074 3.1239288
-4.9281092 2.1240172 3.0657711
-4.8615689 2.3831303 3.0931394
-5.4837909 3.0287037 3.5789282
-5.2988458 3.2738919 3.5584018
-5.1277843 3.5252526 3.5549808
-4.9257751 3.7532096 3.5378757
-4.7137942 3.9698932 3.5207703
-4.6328259 4.3053217 3.6131387
-4.450603 4.5606198 3.640507
-4.932971 5.5752015 4.2528744
-4.6324778 5.7813129 4.232348
-3.8776655 5.3554592 3.7773488
-1.7210124 2.6391406 1.7999837
-1.5538682 2.6579678 1.7589313
-1.3973744 2.6828501 1.7281418
-1.2672526 2.7533026 1.7315629
-1.0866393 2.7007711 1.663142
-0.94762546 2.7336206 1.6528788
-0.80632651 2.7536314 1.6391946
-0.6597482 2.7431307 1.6118262
-0.52283067 2.7602983 1.6049842
-0.38664129 2.776598 1.6015631
-0.24957375 2.7802329 1.594721
-0.11380657 2.7950842 1.598142
0.023059765 2.8332357 1.6186683
0.16099185 2.8227541 1.6152472
0.30238327 2.847259 1.6357735
0.44838643 2.8764386 1.663142
0.57495093 2.7866106 1.6255105
0.71029013 2.7552233 1.6255105
0.8830111 2.8430796 1.7007735
0.99815452 2.7347097 1.663142
1.1351063 2.6937628 1.669984
1.2859809 2.6783285 1.6973524
1.466529 2.7071371 1.7589313
6.1378298 10.117409 6.7605019
6.6646066 9.865283 6.8015542
8.8867388 11.862144 8.4676037
12.537954 15.135707 11.228389
0.070306338 0.076900244 0.059526216
0.073976308 0.073376663 0.059526216
0.077469908 0.069678143 0.059526216
0.0807788 0.065813489 0.059526216
0.083895095 0.061791927 0.059526216
0.086811379 0.05762304 0.059526216
0.089520678 0.053316768 0.059526216
0.092016548 0.048883379 0.059526216
0.094293028 0.044333443 0.059526216
0.096344702 0.039677806 0.059526216
19.007944 6.7630014 11.52602
19.235149 5.8028789 11.478126
19.489668 4.855576 11.474704
19.697578 3.8972638 11.471283
19.935425 2.941597 11.512336
20.061211 1.9655536 11.515757
0.10407094 0.0050861449 0.059526216
0.10419516 0 0.059526216
0.10166915 0 0.063744687
0.10154795 0.004962841 0.063744687
0.10118464 0.0099138496 0.063744687
0.10058008 0.014841222 0.063744687
0.099735729 0.019733209 0.063744687
19.102226 4.7590504 12.342839
0.097336233 0.029364491 0.063744687
0.09578681 0.034080822 0.063744687
0.094009012 0.038715895 0.063744687
0.092007078 0.043258667 0.063744687
0.089785784 0.047698297 0.063744687
0.087350428 0.052024208 0.063744687
0.084706806 0.056226082 0.063744687
0.081861228 0.060293902 0.063744687
0.078820474 0.06421797 0.063744687
0.075591803 0.067988932 0.063744687
0.072182901 0.071597792 0.063744687
0.068601899 0.075035952 0.063744687
0.064857341 0.078295209 0.063744687
11.176187 14.918131 11.687076
8.1417561 12.051833 9.1189709
7.5316339 12.414912 9.1043167
1.4588077 2.6928842 1.920217
1.2699794 2.6450019 1.8396204
1.1325464 2.6876874 1.8286299
0.98196983 2.6903675 1.7956585
0.83734095 2.696033 1.770014
0.70911551 2.7506669 1.7810045
0.56455445 2.7362223 1.7516966
0.42941654 2.754745 1.7480332
0.29752085 2.8014743 1.7663506
0.15841976 2.7776563 1.7443696
0.023309164 2.8638783 1.7956585
-0.11318696 2.7798669 1.7443696
-0.24613538 2.7419298 1.7260523
-0.38532662 2.7671568 1.7516966
-0.52102971 2.7507899 1.7553601
-0.67108077 2.7902501 1.799322
-0.79334682 2.7093053 1.770014
-0.95144534 2.7446396 1.8213029
-1.0799249 2.684083 1.8139759
-1.2463026 2.7077854 1.8689282
-3.4364786 6.5977716 4.6641693
-1.5250444 2.6086636 1.8945726
-1.7016313 2.6094203 1.9531884
-3.8247802 5.2824192 4.0890017
-4.5822854 5.7186732 4.594563
-4.8288684 5.4575458 4.5689187
-4.3835163 4.4918747 3.9351354
-4.563314 4.2407236 3.9058275
-4.7023096 3.9602213 3.8545387
-4.7134066 3.5913947 3.7153261
-5.0516205 3.4728916 3.8435481
-5.2200937 3.225235 3.8472116
-5.6423907 3.1162984 4.0413766
-5.1581907 2.5285335 3.601758
-4.9266863 2.1234038 3.3636312
-5.2926106 1.9807357 3.5431421
-5.2438431 1.6755618 3.451555
-5.1838779 1.381482 3.3636312
-5.1365919 1.1034735 3.2940249
-5.0401874 0.82774943 3.2024379
-5.0513639 0.57807541 3.1877837
-6.0414519 0.39392015 3.7959228
-6.8772402 0.11195542 4.3124747
-7.9801602 0.12990999 5.4719734
-6.5680051 0.42825294 4.5126281
-6.4432006 0.73735642 4.446332
-6.5286231 1.0721951 4.5360265
-6.2071261 1.3334523 4.3527369
-19.858765 5.2922788 14.090483
-6.052938 1.9340914 4.356637
-5.9086947 2.2113023 4.3254385
-5.8250504 2.5105991 4.3488374
-5.6904473 2.7894444 4.3449378
-5.4827724 3.028141 4.2942405
-5.3284216 3.2921653 4.2942405
-4.9926262 3.4323342 4.1538486
-4.7648373 3.6305823 4.1070514
-4.7994699 4.0420485 4.3020401
-5.0297732 4.6742082 4.7076168
-4.2553287 4.3605185 4.177247
-4.1580181 4.6993566 4.3020401
-4.4678569 5.5758672 4.898706
-4.1970243 5.7965269 4.9065056
-3.8904295 5.9659019 4.8831072
-1.5161717 2.5934861 2.0596678
-1.3746288 2.6391804 2.0401688
-1.2370274 2.6876338 2.0284696
-1.0979902 2.7289827 2.0167701
-0.92434585 2.6664658 1.9348748
-0.7850917 2.6811137 1.9153759
-0.64663035 2.6885889 1.895877
-0.51038545 2.6945934 1.880278
-0.3782441 2.7162948 1.880278
-0.24418384 2.7201896 1.8724784
-0.11111039 2.7288663 1.8724784
0.022227967 2.7310371 1.8724784
0.15518944 2.7210176 1.8685786
0.28842792 2.7158546 1.8724784
0.42678747 2.7378793 1.8997768
0.55302823 2.6803582 1.8763782
0.69456655 2.6942315 1.9075763
0.8488735 2.7331648 1.9621732
0.95982432 2.629694 1.9192758
1.1069239 2.6268821 1.9543737
1.2412181 2.5851004 1.966073
1.4472076 2.6714709 2.0830665
7.1666474 11.81328 9.4731455
8.3238192 12.321333 10.194605
8.4822226 11.322189 9.6993322
0.063137047 0.076218486 0.067856133
0.066782288 0.073045678 0.067856133
0.070268303 0.069698714 0.067856133
0.073586784 0.066185571 0.067856133
0.076729819 0.062514633 0.067856133
0.07968992 0.058694649 0.067856133
0.082460016 0.054734726 0.067856133
0.085033521 0.050644305 0.067856133
0.087404281 0.046433136 0.067856133
0.089566663 0.042111259 0.067856133
0.091515489 0.037688985 0.067856133
0.093246132 0.033176851 0.067856133
0.094754457 0.028585618 0.067856133
0.096036866 0.023926232 0.067856133
0.097090311 0.0192098 0.067856133
0.097912267 0.014447569 0.067856133
0.098500788 0.0096508916 0.067856133
0.09885446 0.0048312051 0.067856133
0.098972447 0 0.067856133
0.096109577 0 0.07185366
0.095995009 0.0046914583 0.07185366
0.095651567 0.0093717314 0.07185366
0.09508007 0.01402966 0.07185366
0.094281889 0.01865414 0.07185366
0.093258917 0.023234146 0.07185366
0.092013597 0.027758755 0.07185366
0.090548903 0.032217182 0.07185366
0.088868327 0.036598798 0.07185366
0.086975865 0.040893156 0.07185366
0.084876038 0.045090016 0.07185366
0.082573846 0.049179371 0.07185366
0.080074787 0.053151477 0.07185366
0.077384815 0.056996856 0.07185366
0.074510343 0.060706344 0.07185366
0.07145822 0.0642711 0.07185366
0.068235725 0.067682616 0.07185366
0.064850546 0.070932768 0.07185366
8.7813559 10.600776 10.291386
9.3595562 12.493267 11.670646
7.6996331 11.397381 10.283126
7.0366993 11.599077 10.142722
6.4226527 11.855886 10.08078
1.2507397 2.6049311 2.1603589
1.096354 2.6017981 2.1108046
0.94342369 2.58476 2.0571208
0.81121254 2.6119058 2.0447323
0.68136996 2.6430416 2.0406027
0.54930896 2.6623318 2.0323436
0.41189003 2.6423109 1.9993075
0.28241819 2.6592669 1.9993075
0.15227303 2.6698825 1.9993075
0.022259325 2.7348897 2.0447323
-0.10879529 2.6720076 1.9993075
-0.23958984 2.6690128 2.003437
-0.36958846 2.6541359 2.003437
-0.50076181 2.643785 2.0116961
-0.63955069 2.6591525 2.0447323
-0.77169567 2.6353657 2.0529914
-0.91389066 2.6363058 2.0860274
-1.072415 2.6654174 2.1479702
-1.1920077 2.5898213 2.1314521
-1.3399696 2.5726376 2.168618
-1.4946166 2.5566151 2.2140427
-3.8684092 5.9321342 5.2946653
-4.1306911 5.7049136 5.2657585
-4.4249678 5.5223417 5.2905354
-4.1292486 4.6668415 4.6587191
-4.2441144 4.3490272 4.5430923
-5.0784965 4.7194872 5.1831679
-4.7071142 3.9642677 4.6009054
-4.7807827 3.6427319 4.4935379
-5.0393801 3.4644766 4.5719991
-5.2259812 3.2288723 4.5926466
-5.3435187 2.951231 4.5637398
-5.4861689 2.6893075 4.5678697
-5.6514831 2.4357917 4.6009054
-5.7584729 2.1550825 4.596776
-5.8988972 1.8848709 4.6298122
-5.9945474 1.597522 4.6380715
-19.496006 4.1882496 14.90819
-6.2525682 1.0268586 4.7371798
-8.1665525 0.93457592 6.1453466
-8.1803894 0.5333851 6.1288285
-7.8045549 0.12705129 5.8356323
-7.5589738 0.12305344 6.150496
-14.563949 0.9496116 11.873811
-18.374899 2.1028135 15.046659
-18.968294 3.1151607 15.638577
-18.835463 4.0463476 15.673395
-18.625832 4.9637065 15.6821
-18.330755 5.8572145 15.655986
-17.99794 6.7356472 15.634225
-17.745949 7.6485114 15.721272
-17.36105 8.5103474 15.729976
-5.2596707 2.9049218 4.88832
-5.1343565 3.172262 4.9100819
-16.020947 11.014091 15.817022
-4.7494955 3.6188927 4.8578539
-14.841961 12.499698 15.786556
-5.0127459 4.6583843 5.5672836
-10.170959 10.42238 11.847697
-8.2923374 9.3719282 10.180755
-7.8450451 9.7905836 10.206868
-7.273068 10.044863 10.089355
-6.8266711 10.468574 10.167697
-6.7152185 11.486711 10.824899
-1.3447604 2.5818353 2.3683207
-1.1813405 2.5666451 2.2986834
-1.0326794 2.5666571 2.2508078
-0.89564711 2.5836785 2.2246938
-2.9574049 10.099633 8.5616875
-0.62317926 2.5910828 2.1681135
-0.49396497 2.6079011 2.1594088
-0.37050197 2.660696 2.1855228
-0.23683389 2.6383116 2.1550565
-0.10885417 2.6734538 2.1768181
0.021210583 2.6060362 2.1202378
0.1483954 2.6018941 2.1202378
0.28539595 2.6873055 2.1985798
0.40304923 2.5855963 2.1289425
0.53742927 2.6047547 2.1637611
0.6626007 2.5702353 2.1594088
0.82218218 2.6472254 2.2551601
0.94125146 2.5788085 2.2333984
1.0680878 2.5347185 2.2377508
4.6407228 9.6652908 8.722723
6.2664223 11.567494 10.703033
6.8125048 11.229522 10.685624
7.4543586 11.034313 10.833604
0.055811539 0.07449802 0.075730555
8.4811497 10.238368 10.816195
0.062809937 0.068700768 0.075730555
0.066088594 0.06555289 0.075730555
0.069209687 0.062248718 0.075730555
0.072165765 0.058796134 0.075730555
0.074949794 0.055203371 0.075730555
0.07755512 0.051478989 0.075730555
0.079975545 0.047631875 0.075730555
0.082205296 0.043671194 0.075730555
0.084239043 0.039606392 0.075730555
0.086071961 0.035447165 0.075730555
0.087699659 0.031203423 0.075730555
0.089118265 0.026885286 0.075730555
0.090324394 0.02250305 0.075730555
0.091315173 0.018067161 0.075730555
0.092088245 0.013588198 0.075730555
0.092641756 0.0090768365 0.075730555
0.092974387 0.0045438348 0.075730555
0.093085356 0 0.075730555
0.089904852 0 0.079480298
0.089797676 0.0043885829 0.079480298
0.089476407 0.0087667024 0.079480298
0.088941805 0.013123921 0.079480298
0.088195153 0.017449848 0.079480298
0.087238222 0.021734174 0.079480298
0.086073302 0.02596668 0.079480298
0.08470317 0.030137276 0.079480298
0.083131082 0.034236021 0.079480298
0.081360795 0.038253136 0.079480298
0.079396531 0.042179052 0.079480298
0.07724297 0.046004407 0.079480298
0.074905246 0.049720075 0.079480298
0.072388932 0.0533172 0.079480298
0.069700032 0.056787208 0.079480298
0.066844955 0.060121827 0.079480298
0.063830502 0.063313097 0.079480298
0.060663868 0.066353425 0.079480298
8.221034 9.9243593 11.392861
0.053904589 0.071952604 0.079480298
0.050328061 0.07449811 0.079480298
4.9020739 8.0804272 8.3552523
4.4968729 8.3009968 8.346117
4.0550003 8.4453993 8.2821674
3.6379156 8.6332712 8.2821674
0.93212175 2.5537956 2.4033656
0.79102504 2.5469069 2.3576872
2.3270905 9.0268097 8.2410564
0.53577197 2.5967221 2.3439837
0.39723623 2.5483055 2.2800341
0.27237064 2.5646582 2.2800341
0.14656141 2.5697377 2.2754662
0.020948444 2.5738287 2.2754662
-0.10471447 2.5717828 2.2754662
-0.23151362 2.5790443 2.2891698
-0.35713017 2.5646689 2.2891698
-0.48285684 2.5492554 2.2937374
-0.61517739 2.5578122 2.3257124
-0.74220419 2.5346515 2.3348479
-0.88027614 2.5393376 2.3759584
-1.0205388 2.5364826 2.417069
-1.1733818 2.5493536 2.4810188
-4.311038 8.2768574 8.2501917
-4.7281761 8.0877781 8.2821674
-5.1681361 7.925241 8.3643885
-5.5458045 7.6593328 8.3598204
-5.8710713 7.3270726 8.3004379
-9.2861214 10.495094 12.388649
-12.432537 12.739863 15.736871
-4.8301177 4.4886665 5.8292403
-14.251852 12.002716 16.472292
-11.224635 8.5526447 12.475438
-15.405424 10.590932 16.527105
-15.890855 9.8181639 16.513403
-16.346649 9.0282717 16.508835
-5.2062197 2.5520771 5.1257939
-17.006752 7.3299174 16.371799
-16.734545 6.2628279 15.796253
-17.655218 5.6413608 16.385504
-17.904554 4.7714896 16.380936
-18.136332 3.8961561 16.399206
-17.606382 2.891494 15.773414
-7.6239285 0.87247831 6.7839174
-17.77865 1.1592195 15.750574
-7.6158433 0.12397923 6.7336717
-7.4978056 0.12205768 7.1976466
-7.4282951 0.48434633 7.1451144
-17.648033 2.0196316 17.049849
-16.909786 2.7770922 16.448114
-16.72488 3.5929396 16.41946
-16.587252 4.4204335 16.476768
-16.963085 5.4202037 17.092829
-16.100462 6.0255251 16.500647
-16.335442 7.0405817 17.073727
-16.124189 7.9040408 17.236099
-15.675589 8.6576443 17.188341
-15.268153 9.4334278 17.226547
-7.4954944 5.1530075 8.7306356
-7.2310643 5.5097318 8.7258596
-13.830304 11.647695 17.35549
-6.6046758 6.1377773 8.6542253
-6.3771195 6.534759 8.7640657
-5.9615126 6.7376504 8.6351223
-5.65974 7.0633316 8.6876545
-5.284862 7.298944 8.6494493
-4.9032497 7.519043 8.6160192
-4.5303726 7.7494249 8.6160192
-4.1443958 7.9569182 8.6112442
-3.7344072 8.1135778 8.5730391
-3.3339021 8.2861958 8.5730391
-0.8753612 2.5251594 2.5652494
-0.73008209 2.4932542 2.4936144
-0.60634351 2.5210824 2.4888389
-0.47422394 2.5036776 2.4458578
-0.35075879 2.5189137 2.4410822
-0.22738329 2.5330327 2.4410822
-0.10285842 2.5261984 2.4267552
0.072531216 8.911541 8.553936
0.50631624 8.8775072 8.534833
0.26753235 2.5191007 2.431531
0.39094624 2.5079546 2.4363065
0.52597272 2.5492284 2.4983902
0.65102488 2.5253327 2.503166
2.6492102 8.529808 8.5730391
3.062423 8.3903227 8.5730391
3.4683347 8.2308321 8.5730391
3.8681304 8.0562038 8.5778141
4.2757316 7.8927808 8.6160192
4.6739745 7.7044349 8.6494493
5.0500546 7.4753423 8.6590004
5.4268322 7.2438116 8.6876545
5.7993517 7.0009255 8.7258596
0.058415953 0.063894682 0.083096609
0.061465248 0.060967017 0.083096609
0.064367995 0.057893995 0.083096609
0.067117281 0.054682944 0.083096609
0.069706544 0.051341519 0.083096609
0.072129615 0.047877684 0.083096609
0.074380711 0.044299699 0.083096609
0.076454476 0.040616099 0.083096609
0.078345954 0.036835659 0.083096609
0.08005064 0.032967396 0.083096609
0.081564471 0.029020531 0.083096609
0.082883835 0.025004478 0.083096609
0.084005587 0.020928808 0.083096609
0.08492706 0.01680324 0.083096609
0.085646041 0.012637611 0.083096609
0.086160831 0.0084418505 0.083096609
0.086470202 0.0042259628 0.083096609
0.0865734 0 0.083096609
0.083096609 0 0.0865734
0.082997546 0.0040562479 0.0865734
0.082700603 0.0081028249 0.0865734
0.082206488 0.012130084 0.0865734
0.081516378 0.016128421 0.0865734
0.080631919 0.020088306 0.0865734
0.079555213 0.024000296 0.0865734
0.078288831 0.027855065 0.0865734
0.076835796 0.03164342 0.0865734
0.075199574 0.035356335 0.0865734
0.073384054 0.038984951 0.0865734
0.071393579 0.04252062 0.0865734
0.069232881 0.045954913 0.0865734
0.066907123 0.049279638 0.0865734
0.064421847 0.052486874 0.0865734
0.061782975 0.055568967 0.0865734
6.1510944 6.1012344 9.0262718
5.8169365 6.3624964 8.981493
5.514658 6.6572461 9.0063705
5.1630764 6.8917465 8.9715424
4.8178368 7.1316018 8.9665661
4.4466348 7.3296952 8.9317379
4.0676212 7.5086203 8.8969097
3.7086518 7.7240553 8.9267626
3.3105013 7.8562722 8.8819828
2.9214242 8.0040188 8.8770075
2.5456507 8.196372 8.9416895
2.1258309 8.2461214 8.8720322
2.3866365 11.567294 12.305116
1.3116133 8.4141159 8.8720322
0.26536211 2.4986658 2.6178503
0.14307681 2.5086405 2.6178503
0.020217173 2.4839809 2.5879974
-0.10203052 2.5058653 2.6128747
-0.22252136 2.4788713 2.592973
-0.35116273 2.5218146 2.6526787
-0.47117677 2.4875901 2.6377523
-0.59874386 2.4894843 2.6676052
-2.3931124 8.1725569 8.8720322
-2.7891917 8.0459976 8.8720322
-3.1804039 7.904686 8.8770075
-3.5644658 7.7443538 8.8819828
-3.9382467 7.5611272 8.8819828
-4.3219199 7.3928561 8.9217873
-4.6959004 7.2010765 8.9566154
-5.0446138 6.9671364 8.9615908
-5.3458428 6.6715899 8.9068604
-5.7220974 6.4670658 8.996419
-6.0209513 6.169786 8.981493
-6.3429294 5.8945346 9.0212965
-6.6011848 5.5594282 8.9914436
-6.8988795 5.2566223 9.0362234
-7.2023454 4.9514737 9.1058798
-7.3867059 4.5638762 9.046174
-7.5839577 4.1886282 9.0262718
-15.275096 7.4878178 17.723417
-15.122429 6.5177732 17.156212
-15.422558 5.7718225 17.156212
-16.190865 5.1734562 17.70849
-15.884189 4.2330704 17.126358
-16.048538 3.4476438 17.10148
-16.169424 2.6555028 17.071629
-16.25605 1.8603337 17.046751
-16.370371 1.0673956 17.09153
-16.46026 0.26795855 17.151236
-15.652576 0.25481015 17.707897
-15.698967 1.0236181 17.795734
-15.716512 1.7985892 17.893908
-15.546876 2.5532618 17.821569
-15.399243 3.3081582 17.816402
-15.537195 4.1405983 18.188423
-7.8805108 2.5180545 9.3581133
-7.7353668 2.8949261 9.3426123
-7.6309767 3.288954 9.3994484
-7.3998103 3.6273704 9.3219442
-7.2619061 4.0107584 9.3839474
-6.9797506 4.312439 9.2806091
-6.7308111 4.6273026 9.2392731
-6.5405116 4.9835629 9.3012772
-6.2789674 5.2880611 9.2857761
-5.9899306 5.5664897 9.2496071
-5.7238302 5.8653207 9.2702751
-5.4095111 6.1137829 9.2341061
-5.0989137 6.3634233 9.223772
-4.7982869 6.6269331 9.2547741
-4.4491215 6.8226457 9.213439
-5.7959881 9.9143219 12.990476
-3.7457559 7.1915598 9.1721029
-3.3997934 7.3865781 9.197938
-3.0249448 7.5183024 9.1669359
-2.6633198 7.6828938 9.197938
-2.2761292 7.7730551 9.1617689
-1.8929166 7.8704538 9.1566019
-1.5064745 7.9534717 9.1566019
-1.1240007 8.0718174 9.218606
-0.72333676 8.0579176 9.1514349
-0.32932404 8.0881844 9.1566019
0.065882266 8.0946178 9.1566019
0.46093148 8.0817518 9.1566019
0.85536414 8.0541601 9.1617689
1.2467939 7.9982924 9.1566019
1.6357332 7.927897 9.1566019
2.0219131 7.8430233 9.1617689
2.4023495 7.7349768 9.1617689
2.7989843 7.6685619 9.2341061
3.1699781 7.5227914 9.2341061
4.8976283 10.200352 12.799298
5.4071121 9.9812517 12.840634
4.2081051 6.9365101 9.1772699
4.5800405 6.779604 9.2547741
4.8945627 6.5333309 9.2341061
5.2076435 6.2866211 9.2341061
5.5329657 6.0518928 9.2754421
5.821785 5.7745938 9.2754421
6.1069121 5.4926915 9.2909431
6.4137874 5.2255507 9.3581133
0.063995369 0.047135022 0.089904852
6.9308276 4.6004958 9.4097824
0.068286575 0.040670153 0.089904852
0.07019043 0.037288353 0.089904852
0.071926937 0.033817653 0.089904852
0.073491961 0.030266322 0.089904852
0.074881755 0.026642831 0.089904852
0.076093026 0.02295582 0.089904852
0.077122875 0.019214077 0.089904852
0.077968843 0.015426523 0.089904852
0.07862892 0.01160219 0.089904852
0.079101533 0.0077501955 0.089904852
0.079385549 0.0038797227 0.089904852
0.079480298 0 0.089904852
0.075730555 0 0.093085356
0.075640276 0.003696684 0.093085356
0.075369656 0.0073845545 0.093085356
0.074919343 0.011054819 0.093085356
0.074290402 0.014698726 0.093085356
0.073484346 0.018307589 0.093085356
0.072503082 0.021872804 0.093085356
0.071348965 0.025385868 0.093085356
0.070024729 0.028838407 0.093085356
7.1257167 3.3502746 9.6784697
6.942152 3.6879871 9.6624203
6.750113 4.0202355 9.6570702
6.5421977 4.3425336 9.651721
6.2943888 4.6360564 9.608923
6.0335889 4.9157891 9.5661249
5.7799664 5.1986294 9.5554256
5.516222 5.4715085 9.5500755
5.2220049 5.7117672 9.5126276
4.9675088 5.9967322 9.571475
4.6688647 6.2320657 9.571475
4.3225431 6.3984437 9.4912291
4.0050588 6.6018152 9.4912291
3.6759524 6.7856197 9.4858789
3.3328042 6.9412732 9.4644804
3.0052133 7.1317821 9.5126276
2.6415641 7.2372675 9.4698296
2.2851379 7.3575845 9.4698296
1.9232632 7.4603591 9.4698296
1.5559237 7.5410848 9.4644804
1.1859611 7.6080451 9.4644804
0.81317097 7.656867 9.4644804
0.43819422 7.6830878 9.4591303
0.062384401 7.6648531 9.4216824
-0.31201643 7.6631098 9.4270325
-0.68804353 7.6647534 9.4591303
-1.0577662 7.5961661 9.4270325
-1.4313517 7.5568585 9.4537811
-1.7934344 7.4568224 9.4270325
-2.165076 7.3938046 9.4698296
-2.5148602 7.254632 9.4377317
-2.8757348 7.1474504 9.4698296
-3.2230194 7.0025086 9.4751797
-3.5609951 6.836834 9.4751797
-3.8926775 6.6586161 9.4805298
-4.2154455 6.4643083 9.4858789
-4.5617018 6.3001847 9.5607758
-4.8665204 6.0733972 9.5661249
-8.1854773 9.2511559 15.183345
-5.4051538 5.5387664 9.5126276
-5.6882067 5.2860951 9.5447264
-5.9893947 5.0441866 9.6249723
-6.1453938 4.6825018 9.4965782
-6.4132628 4.4089947 9.5661249
-6.6245394 4.0929713 9.571475
-6.8735833 3.7962873 9.651721
-6.9569068 3.41026 9.5233269
-7.1470561 3.080384 9.5661249
-7.3541203 2.7522464 9.651721
-7.4797006 2.3899839 9.651721
-7.5916533 2.0231442 9.6570702
-7.6898708 1.6519845 9.6677704
-7.7699327 1.2760552 9.6784697
-7.8316073 0.896245 9.6891689
-7.9007654 0.51515275 9.731967
-7.9817696 0.12993619 9.8122129
-7.474062 0.12167115 9.9984341
-7.4344883 0.48475015 9.9652929
-7.4183741 0.8489548 9.9873867
-7.3314157 1.2040375 9.9376755
-7.2275658 1.5526693 9.8879633
-7.1431584 1.9036222 9.8879633
-13.071918 4.1768613 18.355549
-6.8848181 2.576612 9.8327284
-6.819098 2.939034 9.9321518
-6.6378403 3.2538543 9.8879633
-12.019865 6.6385841 18.366596
-6.2081203 3.8356869 9.7609224
-6.0339036 4.1481924 9.7940636
-5.8406453 4.4502978 9.821681
-5.5943375 4.7114749 9.7830162
-5.3697844 4.9901829 9.80511
-5.11691 5.2433972 9.7995863
-4.8521242 5.483829 9.7940636
-4.5605788 5.6915836 9.7553988
-4.2894244 5.9241409 9.7830162
-4.0064106 6.1437564 9.8106337
-3.6850622 6.3034797 9.7664452
-3.3615277 6.4538717 9.733304
-3.0424836 6.6102667 9.733304
-2.714644 6.7470703 9.7277803
-2.3820589 6.8715386 9.7277803
-2.0426338 6.9756608 9.7222576
-1.6996914 7.0670538 9.7222576
-1.3511596 7.1334825 9.7112103
-1.0013376 7.1909337 9.7112103
-0.64912826 7.2312403 9.7112103
-0.29570729 7.2625585 9.7222576
0.059123524 7.2642059 9.7167339
0.41364539 7.2526603 9.7167339
0.77023381 7.2525678 9.7553988
1.1195236 7.1818428 9.7222576
1.4679265 7.1145887 9.7167339
1.8144964 7.0384517 9.7222576
2.1644797 6.9690948 9.7609224
2.4950068 6.8357348 9.733304
2.8433487 6.7476559 9.7940636
3.1836362 6.630599 9.8382511
3.4680989 6.4019322 9.7388277
3.7893174 6.2461939 9.7719688
4.0804529 6.0400901 9.7498751
4.3729033 5.8370128 9.7553988
4.6710567 5.6388578 9.7940636
4.9435277 5.4071727 9.7995863
5.1869192 5.1448746 9.7719688
5.4533682 4.9048796 9.8106337
5.6926951 4.6380506 9.821681
5.955534 4.386477 9.893487
6.1247082 4.0654154 9.8327284
6.3477859 3.7806172 9.8824396
6.5284114 3.4681892 9.8879633
6.6973977 3.1488934 9.8990107
6.8736701 2.8307955 9.9431992
7.0036573 2.4918921 9.9431992
7.1525283 2.1577818 9.9929104
7.2573452 1.8080653 10.003958
0.070487238 0.013946251 0.096109577
0.071083978 0.010488886 0.096109577
0.071511239 0.0070065153 0.096109577
0.071768008 0.0035074388 0.096109577
0.07185366 0 0.096109577
13.002444 0 18.964884
7.0897193 0.34648806 10.353144
7.0371857 0.68948811 10.313327
6.9874244 1.0310383 10.30195
6.8981609 1.3648355 10.256446
6.8119626 1.6971046 10.239382
6.6911316 2.0185874 10.193877
6.5809464 2.3414922 10.18819
6.4551988 2.6584558 10.182501
6.3106761 2.9670699 10.171125
6.1307683 3.2569432 10.125621
6.0013323 3.5742764 10.18819
5.7774658 3.8349254 10.114244
5.5771022 4.1077476 10.102868
5.3457527 4.3553834 10.057364
5.1238785 4.6085291 10.051676
4.8872738 4.8476577 10.040299
4.6763926 5.1149831 10.108557
4.3863082 5.2951121 10.028923
4.1342964 5.518517 10.057364
3.8468907 5.6943593 10.023235
3.5623198 5.8720179 10.017548
3.2602932 6.0183339 9.9834185
2.9710696 6.1878839 10.011859
2.662446 6.3183484 10.000483
2.3668959 6.4847407 10.06874
2.0324934 6.5441313 9.9947948
1.7106277 6.6355433 9.9947948
1.3846834 6.7111354 9.9947948
1.0548371 6.7668734 9.9891071
0.72326392 6.810297 9.9891071
0.38996634 6.8374834 9.9891071
0.056088142 6.8912644 10.051676
-0.281477 6.913063 10.091492
-0.61231714 6.821167 9.9891071
-0.94401538 6.7792835 9.9834185
-1.2738116 6.7251215 9.9834185
-1.6014826 6.6587167 9.9891071
-1.9268016 6.58009 10.000483
-2.2431481 6.4708223 9.9891071
-2.5592499 6.3608479 10.000483
-2.8683255 6.2318816 10.006171
-3.1907251 6.1259441 10.074428
-3.4505236 5.9022903 9.972043
-3.774996 5.7888865 10.080116
-4.0416369 5.5819211 10.051676
-4.3141699 5.3840661 10.063052
-4.5718431 5.1670575 10.063052
-4.7941027 4.9126105 10.011859
-5.0424733 4.6860104 10.040299
-5.2860837 4.4518676 10.080116
-5.4660745 4.1648922 10.023235
-5.6628618 3.8931084 10.023235
-5.8925948 3.6407394 10.102868
-6.0701156 3.3525312 10.114244
-6.2300301 3.0539467 10.119932
-6.3358645 2.7307603 10.063052
-6.4835243 2.4264297 10.09718
-12.040061 3.8471532 18.435892
-6.7495222 1.7987198 10.18819
-6.836904 1.4687449 10.199566
-6.9273858 1.1376837 10.239382
-6.9824114 0.79906344 10.250758
-7.0169845 0.4575277 10.256446
-7.0348525 0.11452121 10.262135
-6.5573235 0.10674746 10.459944
-6.533329 0.42599195 10.442414
-6.4829078 0.7419005 10.407356
-6.4751153 1.0634074 10.465787
-6.3689246 1.3682108 10.389827
-6.3087049 1.6812437 10.413199
-6.2365646 1.9927655 10.442414
-6.1044073 2.2845469 10.39567
-5.9822488 2.5783517 10.389827
-5.8624167 2.8737435 10.413199
-5.6894956 3.1423144 10.366455
-5.5075088 3.4028141 10.325553
-5.3469152 3.6759009 10.348926
-5.1436234 3.9191995 10.313868
-4.9265661 4.149087 10.272966
-4.7315793 4.3970938 10.302181
-4.5036244 4.6149521 10.284652
-4.2608452 4.8155704 10.255437
-4.0298634 5.029253 10.278809
-3.7774148 5.2170024 10.272966
-3.5022418 5.3706236 10.226221
-3.2488499 5.5573173 10.267123
-2.9635499 5.6897855 10.232064
-2.7067854 5.8809109 10.325553
-2.391876 5.9448514 10.220379
-2.0988348 6.0545206 10.220379
-1.819321 6.2130404 10.325553
-1.4975942 6.2267652 10.214536
-1.1911762 6.2888455 10.208693
-0.88631153 6.3648939 10.249594
-0.57456136 6.4005704 10.249594
-0.26144129 6.4209867 10.249594
0.052093402 6.4004507 10.208693
0.36592081 6.4158807 10.249594
0.67634571 6.3685122 10.214536
0.98584545 6.3242855 10.208693
1.3030053 6.3152666 10.284652
1.5987487 6.2015638 10.214536
1.9136897 6.1616125 10.290495
2.1983621 6.0229974 10.226221
2.5153525 5.9692755 10.331396
2.773608 5.776628 10.220379
3.0767097 5.6794481 10.302181
3.3407757 5.5068316 10.272966
3.5912461 5.3159418 10.232064
3.8662243 5.1606903 10.284652
4.1018424 4.9517078 10.255437
4.3411355 4.7482829 10.26128
4.5859485 4.5487752 10.302181
4.8052473 4.3219457 10.308024
5.0133295 4.0845456 10.313868
5.1890359 3.8219221 10.278809
5.3938303 3.5802784 10.325553
5.6030846 3.3370879 10.401513
5.7269478 3.0424154 10.343082
5.8752627 2.7623529 10.354769
6.0098743 2.4750571 10.366455
6.1925569 2.2033038 10.483315
11.630925 3.5088291 19.376444
6.3458991 1.5809913 10.430728
6.4622273 1.2785839 10.506688
6.4770694 0.95573223 10.442414
6.523293 0.63913804 10.454101
6.5503745 0.32012925 10.459944
6.6131449 0 10.547589
6.1173449 0 10.707849
6.1749749 0.30178276 10.821625
6.0984068 0.59750855 10.725813
6.0348949 0.8904866 10.677907
11.075269 2.1912971 19.762049
5.9093447 1.47223 10.659943
5.8075085 1.7520149 10.618025
5.7472939 2.0448797 10.677907
5.6596045 2.3308048 10.713837
5.4771643 2.5751803 10.594072
5.3388886 2.8362606 10.582095
5.173501 3.0812364 10.540178
5.0112271 3.3263166 10.528201
4.8731833 3.5892847 10.594072
4.6550369 3.7926316 10.510237
4.4643555 4.0153399 10.510237
4.2630301 4.2284746 10.510237
4.058466 4.4391026 10.528201
3.8216627 4.6134772 10.486284
3.5898552 4.7917891 10.480296
3.3650765 4.981154 10.522213
3.1054959 5.1190033 10.480296
2.8502872 5.2614837 10.474307
2.6078262 5.4313521 10.546166
2.3223236 5.5111914 10.468319
2.0493608 5.614769 10.462331
1.7728405 5.7081122 10.462331
1.4912393 5.7845335 10.456343
1.2064061 5.8470802 10.450355
0.92587376 5.9395618 10.522213
0.63050294 5.9368534 10.450355
0.33995187 5.9605532 10.450355
0.048562452 5.9666214 10.444366
-0.24288711 5.9652972 10.450355
-0.53378546 5.9463296 10.450355
-0.82341111 5.9131851 10.450355
-1.1104369 5.8625813 10.444366
-1.4056869 5.8446283 10.522213
-1.677772 5.7296462 10.450355
-1.9633005 5.6635442 10.492272
-2.2284796 5.5387402 10.450355
-2.5162141 5.4668646 10.53419
-2.7611079 5.3011122 10.462331
-3.0062234 5.142293 10.426402
-3.2667346 5.0094771 10.468319
-3.4953332 4.8274183 10.43239
-3.7417846 4.6697316 10.474307
-3.9970083 4.5173845 10.558143
-4.1984172 4.3022003 10.522213
-4.3908887 4.0804873 10.492272
-4.6031547 3.876714 10.53419
-4.8249998 3.6764233 10.618025
-4.9338679 3.3919389 10.480296
-5.111021 3.1578443 10.516225
-5.2650638 2.9079003 10.528201
-5.422235 2.6579673 10.570119
-5.5329494 2.3847036 10.546166
-5.6683922 2.1213701 10.594072
-5.7260818 1.8296512 10.522213
-5.8350129 1.5550069 10.570119
-5.9073076 1.2690434 10.576107
-5.9892187 0.98360866 10.624013
-6.03689 0.69085848 10.635989
-6.0668306 0.39557493 10.641978
-6.0823283 0.099014953 10.647966
-5.6696296 0.092296585 10.943338
-5.6583657 0.36894181 10.943338
-5.6241541 0.6436252 10.924969
-5.6016865 0.91996431 10.955585
-5.4911623 1.1796446 10.839242
-5.4025064 1.4397457 10.790255
-5.3227649 1.7007796 10.784131
-5.2096257 1.9496788 10.735145
-5.1402955 2.2154696 10.802502
-4.988986 2.4455898 10.722898
-4.9108763 2.7122824 10.826995
-4.7321377 2.9237511 10.735145
-4.5837774 3.1512585 10.735145
-4.45225 3.3924055 10.802502
-4.2667856 3.5934286 10.765761
-4.0979118 3.8082218 10.796378
-3.8894055 3.9855499 10.747392
-3.6776047 4.1563973 10.710651
-3.4782679 4.3408637 10.735145
-3.2510633 4.4900565 10.698404
-3.0262787 4.6407423 10.692281
-2.783329 4.7610207 10.643294
-2.5490739 4.8940239 10.649418
-2.3150997 5.0299125 10.686158
-2.0727329 5.1516423 10.716775
-1.8052819 5.2077069 10.637171
-1.565864 5.347476 10.753514
-1.2933222 5.3774333 10.673911
-1.0251549 5.4123325 10.631048
-0.75973725 5.4559221 10.631048
-0.49591228 5.5244255 10.704528
-0.22578287 5.5452175 10.710651
0.045168541 5.5496283 10.710651
0.3158316 5.5376401 10.704528
0.58811301 5.5377078 10.747392
0.84893113 5.4459682 10.637171
1.1169623 5.4135737 10.667788
1.3862236 5.3771763 10.716775
1.641404 5.2849193 10.680035
1.8908962 5.180613 10.643294
2.1489191 5.099679 10.680035
2.4227579 5.045908 10.802502
2.628396 4.8518844 10.649418
2.8736207 4.7367878 10.692281
3.1120718 4.6066437 10.729021
3.3237171 4.4365444 10.698404
3.5525112 4.2885599 10.747392
3.746912 4.0983281 10.716775
3.9447522 3.9127765 10.722898
4.1168923 3.7028236 10.686158
4.2927327 3.4974492 10.686158
4.4608936 3.2856176 10.692281
4.6371064 3.0779858 10.741268
4.7872787 2.8512096 10.753514
4.9235516 2.6156147 10.759638
5.0826869 2.3897102 10.839242
5.1610065 2.1254663 10.771885
5.2615952 1.8720688 10.778008
5.3710065 1.6203306 10.826995
5.4436979 1.3562206 10.826995
5.5127482 1.0907247 10.845365
5.5625577 0.82079029 10.851488
5.6244121 0.55106759 10.906598
10.461608 0.51127869 20.214085
5.6354795 0 10.875981
5.2114792 0 11.153948
5.2052665 0.25439128 11.153948
5.1808329 0.50760669 11.141451
5.1498785 0.75989687 11.141451
5.0636888 1.001876 11.047729
4.9860849 1.2422128 10.997743
4.9530435 1.4942391 11.072721
4.8384438 1.721512 10.991495
4.7432437 1.9534185 10.978998
4.6369524 2.1801405 10.966502
4.5378947 2.4107361 10.997743
4.3847098 2.6114476 10.922765
4.2471437 2.819139 10.910268
4.102118 3.0213656 10.90402
3.9882195 3.2493508 11.01024
3.8096585 3.4264908 10.966502
3.6129854 3.583699 10.891523
3.4298053 3.7514806 10.879027
3.240731 3.9121816 10.872779
3.0441494 4.0633736 10.866531
2.8421726 4.2071257 10.866531
2.6515896 4.3707986 10.941509
2.4239497 4.4744868 10.891523
2.196326 4.574316 10.860283
1.9692852 4.6733832 10.854034
1.7438176 4.7776523 10.885276
1.502463 4.837563 10.841538
1.2732781 4.9390597 10.916516
1.0229979 4.9581566 10.83529
0.78020233 5.0050669 10.841538
0.53495669 5.0371847 10.841538
0.28843567 5.0572929 10.841538
0.041345738 5.0799403 10.872779
-0.2067927 5.0788198 10.879027
-0.45602793 5.0801167 10.916516
-0.70587909 5.069149 10.954005
-0.94324517 4.979888 10.847786
-1.1927165 4.9591308 10.916516
-1.4341882 4.8977995 10.922765
-1.6600838 4.7888532 10.847786
-1.8918662 4.7021098 10.847786
-2.1215792 4.6094594 10.860283
-2.3588891 4.5288835 10.929013
-2.5609412 4.3806157 10.860283
-2.7717221 4.2503848 10.860283
-2.9758947 4.1100202 10.860283
-3.1747978 3.9621344 10.866531
-3.3644192 3.8024378 10.866531
-3.5480583 3.6357646 10.872779
-3.7512424 3.4860594 10.960254
-3.914705 3.2969112 10.954005
-4.0640063 3.0965819 10.935261
-4.2439966 2.9176657 11.022736
-4.3515568 2.6886091 10.947758
-4.5108314 2.4913371 11.028984
-4.5798812 2.2450473 10.916516
-4.6893721 2.0211213 10.929013
-4.8015795 1.7969694 10.97275
-4.886353 1.5613332 10.978998
-4.9595633 1.3217031 10.985247
-5.0781069 1.0909095 11.116458
-5.093616 0.83652401 11.047729
-5.1312785 0.58722079 11.053976
-5.1596522 0.33642426 11.066473
-5.1728425 0.084209323 11.072721
-4.7389021 0.077145159 11.332626
-4.7082448 0.30699119 11.281727
-4.6532788 0.53251874 11.199014
-4.6007314 0.75557756 11.148113
-4.5713725 0.98204976 11.179926
-4.5205564 1.2047096 11.186289
-4.4360838 1.417459 11.135388
-4.3591123 1.6313781 11.129025
-4.315824 1.860122 11.237188
-4.2151012 2.0662332 11.224463
-4.0766058 2.2515137 11.135388
-3.9482594 2.4394319 11.097213
-3.824475 2.6292529 11.097213
-3.6873395 2.8095796 11.084488
-3.5803981 3.0153625 11.192651
-3.4035995 3.1629918 11.109938
-3.2321358 3.3120327 11.0654
