# .PCD v0.7 - Point Cloud Data file format
VERSION 0.7
FIELDS x y z
SIZE 4 4 4
TYPE F F F
COUNT 1 1 1
WIDTH 820
HEIGHT 1
VIEWPOINT 0 0 0 1 0 0 0
POINTS 820
DATA ascii
0.37450272 1.8150998 1.1620051
0.25322205 1.8184706 1.1511487
0.15273455 2.0813951 1.3085053
0.01663886 2.044332 1.2818011
-0.11700808 2.0515637 1.2883831
-0.24520156 1.9985005 1.2624191
-0.38439274 2.0294116 1.2950273
-0.5156213 2.0001009 1.2950273
-0.57844633 1.7607497 1.1620051
-0.65166134 1.6196616 1.0946112
-0.83757651 1.744431 1.213266
-0.8720805 1.5490689 1.1145715
-0.91651922 1.4054652 1.0520109
-1.1659206 1.5562872 1.2192174
-1.1509182 1.3442256 1.1095192
-1.0315781 1.0570782 0.92606008
-0.85570252 0.7696377 0.72159266
-1.0795428 0.85068679 0.86174756
-2.6522136 1.8233455 2.0179484
-1.4049327 0.83675051 1.0252612
-1.5689713 0.80103993 1.1045089
-2.6204886 1.1294317 1.7891047
-2.3949897 0.85213417 1.5938298
-2.1287358 0.60457605 1.3874621
-2.5476279 0.54729682 1.6337585
-0.98361492 0.14513855 0.62338609
-0.62220985 0.050752781 0.39140978
-0.54321986 0.0088431416 0.38349727
-0.5551095 0.045279499 0.39314044
-0.68186808 0.10061391 0.48652664
-1.4606109 0.31377724 1.0545342
-3.0305142 0.86068755 2.2237704
-2.8809936 1.0250537 2.1585138
-1.588624 0.68469763 1.2210933
-1.5129101 0.77241784 1.1990619
-2.9735591 1.7709937 2.4430356
-1.6328322 1.1225406 1.398677
-1.7622142 1.3886364 1.5837009
-0.89268231 0.80289817 0.84750152
-0.86185712 0.88316184 0.87105703
-0.90505016 1.0570617 0.98228449
-0.8539356 1.1398451 1.0053368
-0.73747355 1.1309021 0.95301425
-0.7574237 1.3454051 1.0898445
-0.76989651 1.6034731 1.2555619
-0.6864233 1.7060603 1.2980883
-0.39751485 1.2100071 0.89902675
-0.45907319 1.78075 1.2980883
-0.34895989 1.842343 1.3235903
-0.22723427 1.8520592 1.3171293
-0.095430031 1.6732246 1.1830102
0.013283229 1.6320425 1.1520596
0.13393702 1.8252308 1.2918528
0.25120369 1.8039761 1.2856718
0.36804661 1.7838089 1.2856718
0.48565343 1.7645248 1.2918528
0.59943271 1.7291869 1.2918528
0.70390075 1.6704527 1.2795448
0.72710574 1.4532437 1.1470448
0.82011992 1.4028554 1.1470448
0.88644683 1.3121628 1.1177758
0.96582597 1.2463917 1.1130301
0.98595595 1.114319 1.0502672
1.1898838 1.1802388 1.1830102
1.2988902 1.1305524 1.2155164
1.3572847 1.0341873 1.2045013
0.89059013 0.59114957 0.75453228
1.240193 0.71154666 1.0092752
1.2306535 0.60326356 0.96744692
1.2916777 0.53195393 0.98605907
2.3956296 0.80867916 1.784767
3.3172204 0.88402545 2.4232721
3.7597361 0.74388248 2.7053587
3.766737 0.49330154 2.6815577
3.6304376 0.23671503 2.5680842
4.7006202 0 3.7187011
4.5132804 0.59107083 3.6009843
5.4255185 1.0734658 4.37538
4.8017659 1.2796507 3.9312975
3.935024 1.3283238 3.2856123
2.7143097 1.1178389 2.3222833
2.3558722 1.1548432 2.0756311
1.7294455 0.99224973 1.5773724
1.0561149 0.70102042 1.0028088
0.90147012 0.68687791 0.8965916
0.9739688 0.84774125 1.0215049
0.98998076 0.98195606 1.1031072
0.90246427 1.0199573 1.0774059
0.84072685 1.0849521 1.0858504
0.69932425 1.0351746 0.98829734
0.6421001 1.0983437 1.0064977
0.44944492 0.89829165 0.79463255
0.52475846 1.2453237 1.0690809
0.47356638 1.3660997 1.1438276
0.37597811 1.3660414 1.1208725
0.27307141 1.3234932 1.0690809
0.20965435 1.5055965 1.202583
0.11030786 1.503224 1.1924111
0.012751373 1.5666963 1.239468
-0.091201462 1.5990828 1.2671041
-0.18996741 1.5483179 1.2340727
-0.29030579 1.5326769 1.2340727
-0.35655853 1.3830945 1.1299525
-0.43693563 1.3300011 1.1075001
-0.58226609 1.4471843 1.2340727
-0.65517062 1.364532 1.1974772
-0.7270968 1.2915356 1.1725324
-0.78655267 1.206164 1.139168
-0.8165558 1.0899502 1.0774059
-0.79517233 0.92872894 0.96723717
-0.84787756 0.8688367 0.96039861
-0.8398369 0.75536782 0.89360499
-1.2636516 0.99576575 1.2727669
-2.0782149 1.4287325 1.9951398
-1.3761064 0.8195821 1.2671041
-1.513661 0.77280122 1.3445104
-2.3311088 1.0047089 2.0081553
-3.0311017 1.078462 2.5451894
-2.249788 0.63895577 1.8502154
-2.2727418 0.48824412 1.8390065
-0.99973625 0.14751735 0.79946369
-0.52627349 0.042927388 0.41772225
-0.52189326 0.0084959632 0.46144038
-0.60656327 0.049476516 0.53801268
-0.65169978 0.096162386 0.58237284
-0.59132439 0.12703186 0.53468645
-1.1563922 0.32842359 1.0627377
-2.299638 0.81820822 2.1578405
-2.6732671 1.1521792 2.5734599
-1.271656 0.64924538 1.2622502
-2.3236201 1.3839028 2.3909233
-1.1815462 0.81229025 1.2675756
-2.036706 1.6049377 2.2923985
-1.0843295 0.97526979 1.2892945
-0.83050257 0.8510322 1.0512345
-0.77337062 0.90326536 1.0512345
-0.63221043 0.84388334 0.93217057
-0.57975185 0.88903874 0.93830144
-0.54014546 0.95945561 0.97338265
-0.50554824 1.0529116 1.0325611
-0.4082154 1.0145926 0.96682727
-0.34599382 1.0531807 0.98001981
-0.30452678 1.1812627 1.0784378
-0.22535935 1.1897906 1.0705351
-0.14910686 1.2152865 1.0824293
-0.067954719 1.1914855 1.0550435
0.0096778972 1.1890739 1.0512345
0.083106972 1.1325428 1.0039155
0.15083338 1.0831839 0.96682727
0.22173773 1.0746946 0.97009486
0.30994302 1.126116 1.0325611
0.38255671 1.1035635 1.0325611
0.4135046 0.98130298 0.94139463
0.52076596 1.0408388 1.028899
0.59797525 1.022866 1.0474505
0.5521425 0.81730884 0.87196785
0.76696473 0.9897626 1.1069568
0.71267843 0.80546302 0.95078701
0.78172207 0.77538556 0.97338265
1.0209472 0.88863117 1.1965723
0.98115951 0.74759752 1.0904938
0.90507227 0.60076249 0.96035218
1.2436731 0.71354336 1.2675756
2.8041592 1.3745924 2.7608404
3.3085122 1.3625504 3.1632156
4.0768027 1.3761834 3.8038981
4.4353061 1.1819906 4.0578756
4.6569748 0.92140561 4.1968036
5.3720894 0.70354265 4.7897449
3.6693771 0.23925401 3.2507977
7.0139461 0.91856438 6.9778709
4.0872817 1.3797207 4.2553482
5.013948 2.064903 5.3489342
2.6433272 1.295753 2.9038954
2.4741492 1.419515 2.813746
1.6196936 1.0751088 1.9176594
1.3805109 1.0518845 1.7120435
1.142302 0.99425817 1.4938533
0.76346213 0.75727355 1.0607427
0.95075202 1.0745318 1.4152991
0.76617855 0.98874801 1.2338907
0.58967751 0.87287009 1.0390949
0.4045274 0.69196397 0.79065973
0.43687636 0.87317127 0.96311915
0.48764417 1.1572464 1.2387561
0.3897084 1.1241941 1.1736836
0.31573725 1.1471683 1.1736836
0.22034347 1.0679371 1.0756381
0.13909771 0.9989062 0.99486178
0.072379678 0.98635644 0.97559094
0.0078211054 0.96093941 0.94793409
-0.050841313 0.89142728 0.88076258
-0.10873406 0.88623041 0.88076258
-0.16469698 0.86952198 0.87297601
-0.2209232 0.85696357 0.87297601
-0.27540079 0.83830047 0.87040842
-0.33627388 0.83578676 0.88867718
-0.41333118 0.86085004 0.94198209
-0.50470024 0.89649463 1.0148405
-0.60840398 0.93297625 1.0987114
-0.66308314 0.88509268 1.0909204
-0.77676088 0.90722501 1.178123
-0.73570758 0.75389397 1.0390949
-1.11061 0.99890709 1.4734784
-1.9761295 1.5572031 2.4818101
-2.933291 2.0165808 3.5113139
-3.0299301 1.8045672 3.4787602
-3.4248385 1.7485549 3.7932131
-4.1902318 1.8059916 4.5009527
-3.5174384 1.2515 3.6827965
-1.3621708 0.38686618 1.396831
-0.74893159 0.16089 0.75562602
-0.72178 0.10650317 0.71969718
-0.70584106 0.057574466 0.69857758
-0.71787655 0.011686399 0.79012394
-0.74054861 0.060405508 0.81767642
-0.64285409 0.094857149 0.71511763
-0.62631547 0.13454886 0.70498204
-0.7634747 0.21683222 0.87342799
-3.0259659 1.0766346 3.5345604
-3.2705374 1.4096029 3.9192743
-3.8388696 1.959939 4.7434101
-2.315043 1.3787944 2.965317
-2.6706972 1.8360529 3.5666406
-2.3324351 1.8379742 3.2680063
-1.2780395 1.1494969 1.8916756
-0.98550737 1.0098686 1.5528519
-0.84777564 0.99016738 1.4345127
-0.77494353 1.0344055 1.422379
-0.73066503 1.1204613 1.4720756
-0.61072296 1.0848218 1.3700255
-0.58151382 1.2111261 1.4785115
-0.48040715 1.1940205 1.4163823
-0.37467527 1.140485 1.3210921
-0.28164092 1.0924882 1.2415862
-0.14523813 0.76678854 0.85885036
-0.098882906 0.8059392 0.89358252
-0.056660343 0.99345541 1.0950689
0.0076531507 0.94030362 1.0348333
0.077277087 1.0530961 1.1620425
0.14668213 1.0533724 1.1704158
0.16313757 0.79067773 0.88846463
0.27238703 0.98966384 1.1296185
0.2549046 0.73532474 0.85646397
0.38378441 0.91077286 1.0876527
0.48815814 0.97566652 1.2006106
0.60827923 1.0404915 1.3263705
0.68011874 1.0067457 1.3370435
0.7752431 1.0004457 1.3928512
0.86011297 0.97209227 1.4284223
0.87666649 0.8695603 1.3588676
1.0359874 0.90172207 1.5114774
1.4774221 1.1257263 2.0440886
2.35447 1.5628333 3.1099393
1.4368732 0.8243897 1.8230458
3.3619785 1.6480342 4.1204548
3.9855025 1.6413565 4.7434101
4.3130946 1.1494218 4.9121962
3.5906966 2.0601215 5.088388
2.5339236 1.6819499 3.7383039
1.3376638 1.1643008 2.1797991
1.2375133 1.2274822 2.1424711
1.1820003 1.3358865 2.1925073
1.375737 1.7753788 2.7607338
1.0865309 1.6083373 2.3857517
0.86973876 1.4877307 2.1182294
0.69198358 1.3830462 1.900902
0.49826711 1.182456 1.5772024
0.37044722 1.0686312 1.390209
0.27267745 0.99071908 1.2630396
0.20022984 0.97045261 1.2179719
0.1266264 0.90934569 1.1285207
0.061951317 0.84424359 1.0405049
0.0070667611 0.86825693 1.0672665
-0.049921162 0.87529379 1.077629
-0.10746076 0.87585247 1.08464
-0.19193855 1.0133446 1.2677143
-0.29283655 1.1359162 1.4418787
-0.38178536 1.1621276 1.5035561
-0.48979372 1.2173502 1.6128968
-0.41117004 0.85634899 1.1676385
-0.71057802 1.2621936 1.7804039
-0.85357481 1.3089412 1.9207715
-1.240876 1.6563386 2.5438762
-1.1948237 1.3955054 2.2581336
-1.322473 1.3551639 2.3274443
-1.3578069 1.2212415 2.2447228
-2.0661771 1.6281612 3.233428
-2.4396796 1.6772327 3.639065
-2.3942184 1.4259497 3.4252961
-2.6368182 1.3462304 3.639065
-2.4753547 1.0668788 3.3131895
-2.8142467 1.0013053 3.6716044
-1.9778185 0.56171447 2.5272093
-1.9713415 0.42349547 2.4783869
-0.71850276 0.10601959 0.89272124
-0.49649194 0.040498149 0.61229742
-0.39709666 0.006464384 0.54662907
-0.41726646 0.034035839 0.57622546
-0.76082397 0.11226435 1.0585231
-1.8479894 0.39699623 2.6015697
-1.2605764 0.35801262 1.8036516
-2.4453061 0.87003672 3.5723636
-2.1460385 0.92494345 3.2164373
-2.8850868 1.4729841 4.4585872
-2.6483395 1.5772992 4.2426457
-2.3132493 1.5903143 3.8637426
-2.7373533 2.1570525 4.7968397
-1.9136025 1.7211362 3.5424616
-1.7679027 1.8116045 3.4840114
-1.4631003 1.7088414 3.0963399
-1.31911 1.7607665 3.0281496
-1.2106496 1.8565089 3.0505722
-1.0262345 1.8228914 2.8792679
-0.90545398 1.8858004 2.8792679
-0.81521237 2.0261571 3.0060267
-0.54708564 1.66529 2.412595
-0.40759504 1.5810657 2.2473001
-0.28571177 1.5084227 2.1130805
-0.1829595 1.4912004 2.067852
-0.083309121 1.4607023 2.0137515
0.010979812 1.3490335 1.8568468
0.098249108 1.3388928 1.8477829
0.18336326 1.3167917 1.8298957
0.26353654 1.2772807 1.7950561
0.33643669 1.2223755 1.7450176
0.44624144 1.2872752 1.8752207
0.51877666 1.231128 1.8387995
0.44627929 0.89196461 1.3727752
1.1794029 2.0174265 3.2164373
1.2137123 1.7965975 2.9841979
0.77297109 0.99751377 1.7369252
1.6235607 1.8349344 3.3722575
1.214824 1.2049768 2.3550882
0.96530026 0.84019613 1.7614108
2.2737334 1.7324781 3.9344652
1.1756842 0.78038734 1.9422295
3.0229084 1.7343595 4.7968397
5.1588564 2.5288599 7.9077821
3.5601034 0 5.5094967
3.9667866 0.25864598 6.1519017
6.3868918 0.83644372 9.9685421
4.0020967 0.79183477 6.3135748
5.8845625 1.5682116 9.4245863
5.1094489 1.7247679 8.3455734
4.1501336 1.7091569 6.945941
4.7634025 2.3350091 8.2097301
3.4042811 1.9531677 6.0738769
3.354995 2.2269547 6.2317796
2.2638853 1.7249744 4.4046454
1.8545048 1.6141586 3.8048415
2.2846794 2.26616 4.980001
1.4871393 1.680752 3.4730754
1.5595285 2.0125606 3.9402299
1.562813 2.3133538 4.3204527
1.2849858 2.1980312 3.9402299
0.95076448 1.9002635 3.2883348
0.72442681 1.7191639 2.88708
0.53996247 1.5576329 2.5512702
0.41186213 1.4964188 2.4019208
0.31735614 1.5381279 2.4304936
0.20210849 1.4514073 2.2678218
0.11562419 1.5756723 2.4450142
0.012412425 1.5250515 2.3601968
-0.076521546 1.3416922 2.0797322
-0.18254581 1.4878286 2.3197794
-0.33342627 1.7603328 2.7726696
-0.51853764 2.0114131 3.2145696
-0.64348692 1.9587286 3.1906502
-0.46956328 1.1670688 1.9468236
-0.86025965 1.7916734 3.0757823
-1.0344872 1.8375506 3.2634051
-1.2357247 1.894961 3.5010228
-0.78923702 1.0534847 2.0371084
-1.3509458 1.5778497 3.2145696
-1.4399507 1.4755456 3.1906502
-1.6685929 1.5007693 3.4730754
-2.1927774 1.7279229 4.3204527
-2.3684082 1.6282349 4.447876
-2.4693303 1.4706849 4.447876
-2.5349083 1.2942001 4.4046454
-2.9873056 1.2875299 5.0341673
-2.3163478 0.82415354 3.8048415
-3.0955338 0.87915355 4.980001
-2.2118139 0.47515517 3.5010228
-3.2181118 0.47485256 5.0341673
-2.2547874 0.18391985 3.5010228
-1.426783 0.023226772 2.4977829
-2.1468875 0.1751186 3.7704096
-2.9096947 0.42934367 5.1482997
-2.8755939 0.61775243 5.1482997
-2.9561815 0.83957648 5.3791652
-3.13903 1.1168628 5.8320088
-2.4123993 1.0397451 4.5981917
-1.8870083 0.96341407 3.708621
-1.835375 1.0931135 3.7392819
-1.386079 0.95290256 2.9442453
-1.5610898 1.230149 3.4789846
-1.209507 1.0878572 2.8474894
-1.4677073 1.5039883 3.6784167
-1.3447901 1.5706601 3.6193397
-1.259982 1.6818415 3.6784167
-0.86015815 1.3190366 2.7563949
-0.50598419 0.89877534 1.805397
-0.74827999 1.5584521 3.026078
-0.6981802 1.7352813 3.2740848
-0.58379519 1.7770313 3.2740848
-0.49232426 1.9097313 3.4521029
-0.33564052 1.7720228 3.1569126
-0.20209527 1.6471654 2.9048314
-0.097091146 1.7023498 2.9846487
0.013327572 1.6374909 2.8663716
0.12651952 1.7241486 3.026078
0.15107962 1.0849522 1.9174329
0.32443717 1.5724473 2.8103995
0.4232991 1.5379728 2.7921844
0.61720699 1.7804605 3.2984781
0.77783751 1.8459147 3.5062521
0.92520154 1.8491716 3.6193397
1.0605905 1.8141922 3.6784167
1.3026983 1.9283189 4.07339
1.1372811 1.4676532 3.2500196
1.7579677 1.98684 4.643692
2.001646 1.9854209 4.9349346
3.5415611 3.0825703 8.2185135
2.9659462 2.2599118 6.5269418
3.4178689 2.2686887 7.1806788
4.9177227 2.8214874 9.9241772
3.0278132 1.4842272 5.9024267
3.0443752 1.2537704 5.7631125
2.9780681 1.0052897 5.5018239
3.4227643 0.91215253 6.2003336
3.3079045 0.65448534 5.9024267
5.7277536 0.7501213 10.111517
2.7559166 0.17969374 4.8342214
2.3262024 0 4.6435585
4.037396 0.2632499 8.0765514
3.21157 0.42059544 6.4656706
4.6728535 0.92454731 9.5087624
3.9700599 1.0580045 8.2016125
3.3656781 1.136133 7.0910211
4.1841402 1.7231617 9.0329437
4.5127802 2.2121546 10.032516
3.5093873 2.0134711 8.0765514
3.3709452 2.2375422 8.0765514
3.3193116 2.5291598 8.3302622
3.4132385 2.9708784 9.0329437
2.629786 2.6084692 7.3939867
2.0930667 2.365566 6.305212
1.0907232 1.4075706 3.5546503
1.1456791 1.6958914 4.0854445
0.99815983 1.7074014 3.9480028
0.94858885 1.8959152 4.2318978
0.73084974 1.7344064 3.7570457
0.58324355 1.6824859 3.5546503
0.50765038 1.8444462 3.8187885
0.35706556 1.7305871 3.5273585
0.24750684 1.7774278 3.5823307
0.12931915 1.7623008 3.5273585
0.013951624 1.7141649 3.4219244
-0.096166834 1.6861433 3.3713441
-0.16775505 1.3672775 2.7498217
-0.2904965 1.5336839 3.1159699
-0.36910424 1.4317594 2.9515195
-0.4805215 1.4626734 3.0733101
-0.54826272 1.3626711 2.9320762
-0.77675766 1.6177628 3.5823307
-0.8285203 1.4716933 3.3713441
-0.97267914 1.4915855 3.5546503
-1.0201546 1.3617166 3.396462
-1.0984091 1.282897 3.3713441
-1.381312 1.4154574 3.9480028
-1.3881123 1.2484988 3.726855
-1.6215591 1.2777992 4.1211805
-1.7469682 1.2010069 4.2318978
-1.8887025 1.1248744 4.3882475
-3.2527368 1.6606882 7.2904062
-2.5481558 1.0982562 5.5389576
-1.9796219 0.7043469 4.1943932
-2.6396842 0.74968904 5.4777212
-3.1269991 0.6717608 6.3845196
-2.3236887 0.34287483 4.6887655
-2.3640509 0.19283231 4.7347846
-2.41379 0.039294377 5.557838
-3.0244691 0.24670169 6.9861517
-3.4038107 0.50225365 7.9212089
-3.2212374 0.69200563 7.585228
-2.2010331 0.62510902 5.2676878
-2.2497425 0.80045545 5.497499
-3.025667 1.3040637 7.585228
-2.9765954 1.5197039 7.6942816
-2.5396659 1.5125754 6.8053365
-2.4358692 1.674613 6.8053365
-2.5878217 2.0392206 7.585228
-2.7598486 2.4822688 8.5457191
-1.5491681 1.5874628 5.1065745
-1.2155552 1.4197189 4.3028789
-0.95708257 1.2775272 3.6749856
-0.9071095 1.3910357 3.8232479
-0.90087843 1.6002225 4.2277722
-0.69092363 1.4389952 3.6749856
-0.52554184 1.3061999 3.2414501
-0.45535919 1.3860811 3.3588696
-0.39540735 1.5337895 3.6465893
-0.25839579 1.3642073 3.1965628
-0.19439329 1.5843908 3.6749856
-0.084911369 1.4887954 3.433121
0.012317587 1.5133991 3.4843097
0.12874642 1.754496 4.0501156
0.20566726 1.476964 3.433121
0.33289298 1.61343 3.7927284
0.56540567 2.0542886 4.9053106
0.57620233 1.6621741 4.0501156
0.35682702 0.84679931 2.1155417
0.65756208 1.3142489 3.383291
1.4918556 2.5518923 6.8053365
2.4140136 3.5733433 9.9279938
1.834362 2.3672314 6.89466
1.6728141 1.8906002 5.8117886
1.9947385 1.9785693 6.4682927
2.4164481 2.1032734 7.3754005
2.6970294 2.0550098 7.8062372
2.5282397 1.6781771 6.9861517
2.7035811 1.5511489 7.175952
2.9584038 1.4502029 7.585228
2.5041778 1.0312999 6.234961
4.1594954 1.4040974 10.107001
1.4624097 0.38972613 3.4843097
3.3262467 0.65811443 7.8062372
4.1289048 0.54073197 9.5868626
4.0165129 0.26188827 9.2665758
2.4220057 0 6.5307732
2.6428657 0.17232248 7.1414394
3.4257782 0.44864869 9.3162565
2.6686978 0.52801514 7.3354583
3.231427 0.86116189 9.0174265
3.5660465 1.2037702 10.148672
3.419421 1.4082261 9.9715281
3.5685654 1.7493026 10.716313
3.2645891 1.873021 10.148672
1.1342297 0.75287086 3.670805
2.287282 1.7428015 7.7538319
1.8729112 1.6301795 6.6952367
2.0709591 2.054172 7.8653092
1.7785721 2.0101268 7.2372599
1.6010033 2.0660834 7.047914
1.1666768 1.7269731 5.6196971
1.8663725 3.1925216 9.9715281
1.2009667 2.4003351 7.2372599
1.5151064 3.5955548 10.520772
0.59725976 1.7229186 4.916955
0.37554306 1.3644607 3.8159852
0.4776324 2.3149376 6.3735514
0.24204734 1.7382213 4.7322187
0.092521064 1.2608337 3.4088936
0.013276243 1.6311842 4.3985229
-0.07634984 1.3386817 3.61553
-0.1528585 1.2458639 3.3845782
-0.26546261 1.4015168 3.8462875
-0.39322323 1.5253172 4.2473869
-0.26322055 0.80122477 2.2740469
-0.66763937 1.659374 4.8229699
-0.92208606 1.9204402 5.744307
-1.0336361 1.8360387 5.6813774
-1.3394426 2.0540104 6.6120696
-1.7241282 2.3013904 7.7538319
-1.7225059 2.0118167 7.1414394
-1.8497543 1.8954794 7.1414394
-1.9691637 1.7711092 7.1414394
-2.1961324 1.7305667 7.5393405
-1.1480668 0.78927374 3.7566731
-2.080899 1.2393428 6.5307732
-2.2683277 1.1580971 6.8674369
-1.459113 0.6288783 4.2842722
-1.9850923 0.70629323 5.6813774
-1.068691 0.30351582 2.995616
-2.5894008 0.55627066 7.1414394
-2.6201077 0.38661331 7.1414394
-2.3002684 0.18762966 6.2231169
-2.1402543 0.034841456 6.9075375
-2.7062545 0.22074537 8.7621145
-2.3877227 0.35232347 7.7886362
-2.5748322 0.553141 8.498579
-2.459044 0.69838595 8.2491875
-3.3098254 1.1776315 11.336759
-2.1857796 0.94207186 7.6807804
-1.6516234 0.84323806 5.9842639
-1.9630061 1.1691282 7.3730326
-1.4008532 0.96305948 5.4857969
-1.8957266 1.493845 7.7886362
-2.2234337 1.9998052 9.65026
-1.3560841 1.3896059 6.2656941
-1.5920343 1.8594313 7.8992953
-1.5104409 2.0161579 8.1294556
-1.2153696 1.8637469 7.1801343
-0.9991287 1.7747436 6.5723138
-1.0747581 2.2384121 8.0128641
-1.195908 2.9723508 10.339064
-0.76400793 2.3255861 7.8992953
-0.67782158 2.6292772 8.7621145
-0.49760687 2.6271286 8.6285067
-0.30238616 2.4645803 8.0128641
-0.13938424 2.4438965 7.8992953
0.021761714 2.6737509 8.6285067
0.15276565 2.0818188 6.7361135
0.30687195 2.203748 7.1801343
0.48771134 2.3637872 7.7886362
0.54711515 1.9878336 6.6532917
0.67529368 1.9480236 6.6532917
0.81057662 1.9236091 6.7361135
0.78529459 1.569544 5.6635232
1.1847976 2.0266545 7.5756249
1.4967953 2.215631 8.6285067
0.64984041 0.83861446 3.4236233
1.1885351 1.3432722 5.787961
1.7379335 1.7238461 7.8992953
1.7953359 1.5626581 7.6807804
0.88125432 0.67147446 3.5752697
1.3454694 0.89308614 5.2112875
2.1537545 1.2356921 8.0128641
2.1671991 1.0623561 7.7886362
2.4723823 1.0182055 8.6285067
2.7866364 0.94066912 9.4910316
2.6236737 0.69919813 8.7621145
2.7053883 0.53527451 8.8995562
2.7344832 0.35811493 8.8995562
3.5739546 0.2330322 11.557678
1.4126545 0 5.629437
1.9262754 0.12559873 7.6925192
2.6122191 0.34210292 10.498599
2.2245955 0.44014731 9.0368795
1.7913485 0.47738692 7.3876767
1.8803979 0.63475537 7.9088178
1.7849247 0.73508871 7.6925192
1.3539311 0.66369396 6.0088015
1.8783486 1.0776812 8.629715
1.6535286 1.0975674 7.9088178
1.1731122 0.89385641 5.8772712
1.4171245 1.2334634 7.4868007
1.2036573 1.1939006 6.7559543
1.3151319 1.4863508 7.9088178
1.0257947 1.323781 6.673727
1.0377816 1.5361761 7.3876767
0.73626149 1.2594113 5.8134646
0.70611465 1.4112896 6.2886581
0.59212977 1.4052049 6.0766034
0.54191488 1.5632648 6.5933113
0.41876608 1.5215029 6.2886581
0.29802212 1.4444218 5.8772712
0.17434387 1.2520205 5.0374498
0.12881339 1.7554086 7.014123
0.0094605973 1.1623753 4.6322265
-0.083979324 1.4724534 5.8772712
-0.21710122 1.7694705 7.1042261
-0.29368383 1.5505115 6.2886581
-0.39394516 1.5281175 6.2886581
-0.42730567 1.3006881 5.455792
-0.47184417 1.1727378 5.0374498
-0.78165251 1.6279575 7.1964693
-0.66477394 1.1808321 5.4000716
-0.83292907 1.2772813 6.0766034
-0.9142701 1.2203805 6.0766034
-0.85503387 0.99864471 5.2389936
-1.4260235 1.4612741 8.1365051
-1.2451594 1.1199238 6.673727
-1.4370382 1.1323955 7.2909265
-1.9289854 1.3261402 9.3283472
-1.6141472 0.96135455 7.4868007
-1.6959809 0.86588484 7.5883851
-0.74278659 0.32014132 3.223233
-1.6582917 0.59001797 7.014123
-1.7149175 0.48704872 7.1042261
-1.7656045 0.37929779 7.1964693
-1.6368067 0.24152111 6.5933113
-1.6691656 0.13615149 6.673727
-1.5495826 0.025225842 8.0053959
-1.2877285 0.10503821 6.6738257
-1.4513756 0.21415956 7.5782256
-1.8464062 0.3966561 9.7551699
-1.7871149 0.50755328 9.5963821
-1.161008 0.41308513 6.3654518
-0.69393498 0.29908627 3.9032643
-1.7393104 0.88800675 10.087581
-1.5456203 0.92054129 9.2926054
-1.5063249 1.0355692 9.4422598
-0.56290907 0.44357604 3.7019808
-1.5571785 1.4005606 10.81841
-1.0110819 1.0360754 7.477891
-0.64200127 0.74983132 5.0989647
-0.81375074 1.0862058 7.0106664
-0.33602989 0.51529562 3.1776958
-0.55885512 0.99268943 5.8844552
-0.539639 1.1239129 6.4400702
-0.4881418 1.2132446 6.7552228
-0.35945645 1.09416 5.9490414
-0.2696633 1.0460269 5.5798898
-0.2031429 1.0724982 5.6384678
-0.13723725 1.118544 5.8211403
-0.070991389 1.2447292 6.4400702
0.0099143339 1.2181237 6.2923999
0.11184919 1.5242283 7.8945384
0.1699588 1.2205298 6.3654518
0.26425967 1.2807856 6.7552228
0.3159833 1.1480621 6.1508074
0.39445442 1.137885 6.2208672
0.48413342 1.1489148 6.4400702
0.68385249 1.3667948 7.8945384
0.79327774 1.3569405 8.1191349
0.82126647 1.2156795 7.5782256
0.93613237 1.2080723 7.8945384
1.041564 1.1771667 8.1191349
1.165379 1.1559325 8.4787645
1.0500699 0.91397953 7.1909795
1.4309344 1.090305 9.2926054
1.4753951 0.97932726 9.147233
1.3442531 0.77124995 8.0053959
1.6681485 0.81772268 9.5963821
1.495728 0.61598831 8.3557005
1.7044889 0.57537472 9.2926054
1.1637014 0.31012163 6.2208672
1.3833809 0.27370879 7.2843485
1.9039568 0.24934708 9.918829
1.7951707 0.11705032 9.2926054
1.1588924 0 8.4315681
0.9464485 0.061711181 6.9005461
0.46093214 0.060364854 3.3821666
1.2445477 0.24623998 9.2302876
0.85308182 0.22734277 6.4232488
1.0822725 0.36533663 8.3106441
0.94644314 0.38977534 7.4469676
0.9437685 0.46263319 7.6470342
0.88781601 0.50937438 7.4469676
0.89976525 0.59723979 7.8571553
0.96365315 0.73425847 8.8144093
0.95695323 0.83293086 9.2302876
1.010469 1.0022782 10.354833
0.76794457 0.86792433 8.4315681
0.61883098 0.79859704 7.3504887
0.58837593 0.87094337 7.6470342
0.48463759 0.82899636 6.9864454
0.46407229 0.92752689 7.5457883
0.39231595 0.93101943 7.3504887
0.32666662 0.94233704 7.2562718
0.33666074 1.2231896 9.2302876
0.13023517 0.63120985 4.6891246
0.15754128 1.1313555 8.3106441
0.071160041 0.96973568 7.0743213
0.007533432 0.92559439 6.7344222
-0.059056133 1.035462 7.5457883
-0.056228045 0.45828328 3.359261
-0.20376895 1.0758035 7.9662185
-0.22297573 0.86492532 6.4985442
-0.31128496 0.94752932 7.2562718
-0.33340162 0.82864791 6.4985442
-0.44303444 0.9227134 7.4469676
-0.55242521 0.98126799 8.1928549
-0.25220555 0.38675255 3.359261
-0.62184477 0.83004713 7.5457883
-0.70236772 0.82033688 7.8571553
-0.66242385 0.67879868 6.9005461
-0.70518607 0.63425988 6.9005461
-0.81461793 0.64192432 7.5457883
-0.85465842 0.58756119 7.5457883
-0.95393533 0.56814522 8.078083
-0.98888016 0.50487381 8.078083
-0.99174827 0.42744392 7.8571553
-1.0036849 0.35710979 7.7507925
-0.9846223 0.27963972 7.4469676
-0.93884522 0.20168839 6.9864454
-1.0260351 0.1513979 7.5457883
-0.94531864 0.077108316 6.9005461
-0.62344491 0.010149135 7.591166
-0.63834751 0.052069109 7.7974033
-0.75455183 0.11133885 9.2857952
-0.60961914 0.13096206 7.591166
-0.59195125 0.16811836 7.4917512
-0.26694107 0.094977282 3.449465
-0.73482752 0.31671098 9.7417488
-0.6390537 0.32626954 8.7355366
-0.77502513 0.46158984 10.982287
-0.43236053 0.29723951 6.3877172
-0.55529493 0.43757606 8.6072016
-0.49630067 0.44638374 8.1266623
-0.4796268 0.49148297 8.3606215
-0.19083072 0.22288251 3.5722079
-0.40022293 0.5342232 8.1266623
-0.34058991 0.52228832 7.591166
-0.28321144 0.503066 7.0284595
-0.21470729 0.44717354 6.0391579
-0.22097239 0.54921246 7.2073236
-0.1920615 0.58462161 7.4917512
-0.12248687 0.47512794 5.9735932
-0.10878947 0.57435685 7.1168642
-0.079066195 0.64442426 7.9044056
-0.015805943 0.27713385 3.3794625
0.0052126059 0.64044636 7.7974033
0.045034684 0.6137116 7.4917512
0.097506605 0.7002269 8.6072016
0.11522222 0.55844671 6.9420438
0.17228952 0.6259796 7.9044056
0.20422651 0.58913338 7.591166
0.24212556 0.57459706 7.591166
0.28657836 0.5727753 7.7974033
0.29502708 0.50465828 7.1168642
0.34904605 0.51667535 7.591166
0.3005411 0.38784617 5.9735932
0.44861421 0.50701994 8.2421236
0.46095818 0.45722169 7.9044056
0.48973042 0.42626074 7.9044056
0.50943637 0.38816658 7.7974033
0.5890311 0.3909829 8.6072016
0.52683663 0.30226654 7.3946919
0.4765884 0.23362255 6.4618759
0.52083063 0.21449459 6.8575511
0.63245052 0.21349275 8.1266623
0.47411531 0.12634976 5.9735932
0.47615263 0.094209164 5.9093194
0.66186064 0.086678974 8.1266623
0.66609794 0.043431517 8.1266623
0.20532483 0 7.5141764
