# .PCD v0.7 - Point Cloud Data file format
VERSION 0.7
FIELDS x y z
SIZE 4 4 4
TYPE F F F
COUNT 1 1 1
WIDTH 1581
HEIGHT 1
VIEWPOINT 0 0 0 1 0 0 0
POINTS 1581
DATA ascii
16.088327 5.1406932 8.1742754
16.001059 5.4013877 8.1735287
15.911021 5.6611204 8.1735287
15.766187 5.900424 8.1473904
15.716887 6.1754541 8.1727819
15.689911 6.4616036 8.2123642
15.58124 6.7155209 8.2116175
15.438913 6.9543037 8.1951866
15.325069 7.2053375 8.1959333
15.205758 7.4538283 8.1959333
15.123651 7.7213955 8.2183399
15.177233 8.0628366 8.3176804
15.507463 8.5647888 8.5739346
15.407515 8.8398867 8.5970984
15.666224 9.3304968 8.825037
15.472862 9.559907 8.8026142
15.248887 9.7680101 8.7644968
15.058282 9.9952793 8.7473068
14.856692 10.213689 8.7256336
14.658282 10.432669 8.7076969
14.655627 10.794426 8.8093405
14.669624 11.177566 8.9259462
15.00141 11.82121 9.2436934
13.207617 10.760736 8.2452278
13.031896 10.975285 8.2459745
14.284129 12.432887 9.1651821
14.112029 12.69267 9.1861181
13.998628 13.009035 9.2489281
14.068134 13.506984 9.4388771
13.509634 13.400126 9.2092972
13.265992 13.593922 9.1928473
11.83306 12.527172 8.3400898
11.604677 12.693059 8.3236561
12.754517 14.415045 9.3154812
10.039765 11.726037 7.4711456
9.7895613 11.817871 7.4271345
11.918758 14.874561 9.2250004
11.725224 15.13132 9.2646313
11.678417 15.588515 9.4269114
11.138601 15.383567 9.1920996
11.211776 16.027494 9.4665499
8.5077181 12.593549 7.3555312
8.2679377 12.678729 7.3256993
8.0383158 12.776412 7.3055639
7.822896 12.89502 7.2995982
7.5894165 12.98207 7.2779722
7.3680325 13.087771 7.2690239
7.1510916 13.200547 7.2660413
6.9324322 13.309731 7.2630582
6.6762671 13.343649 7.221302
6.4701915 13.475549 7.2347231
6.2487049 13.57628 7.233232
6.0219264 13.664912 7.2272668
5.7987056 13.761121 7.2272668
5.5693474 13.842249 7.221302
5.3273005 13.889355 7.1996794
5.1005182 13.974227 7.1996794
4.8688526 14.045207 7.1944604
4.6391134 14.121133 7.1937151
4.4054513 14.184475 7.1884961
4.1739874 14.254303 7.1884961
3.9291544 14.275798 7.1661296
3.6931908 14.325929 7.1601653
3.4598792 14.385642 7.1609106
3.22258 14.428026 7.1549463
2.9782822 14.434819 7.133327
2.7420726 14.476845 7.1310906
2.5068562 14.524113 7.133327
2.2682178 14.550817 7.1273632
2.0310743 14.58581 7.1273632
1.7933924 14.616937 7.1273632
1.5505183 14.599773 7.1057453
1.3126729 14.623077 7.1057453
1.0744797 14.642507 7.1057453
0.83530021 14.645754 7.0997815
0.59686381 14.658949 7.1005273
0.35814393 14.665182 7.0997815
0.11940439 14.670609 7.1005273
-0.11937932 14.667529 7.0990362
-0.35814393 14.665182 7.0997815
-0.59636253 14.646638 7.0945635
-0.83468628 14.63499 7.0945635
-1.0726762 14.617929 7.0938182
-1.3106073 14.600067 7.0945635
-1.5480784 14.576799 7.0945635
-1.7851393 14.54967 7.0945635
-2.0213025 14.515635 7.0930729
-2.2558818 14.471682 7.0886002
-2.491138 14.433045 7.0886002
-2.7254474 14.389071 7.0878549
-2.9596081 14.344312 7.0886002
-3.1926978 14.294238 7.0886002
-3.4249415 14.240376 7.0886002
-3.6562779 14.182743 7.0886002
-3.8866456 14.12135 7.0886002
-4.1289682 14.100561 7.1109633
-4.3579354 14.031486 7.1109633
-4.5857482 13.958694 7.1109633
-4.812346 13.882202 7.1109633
-5.0371404 13.800586 7.1102176
-5.2616563 13.718206 7.1109633
-5.4842501 13.630745 7.1109633
-5.7095771 13.549608 7.1161814
-5.9436536 13.487296 7.133327
-6.1669064 13.39856 7.1385455
-6.3841772 13.296406 7.1385455
-6.5997567 13.190729 7.1385455
-6.8192797 13.092487 7.1445093
-7.0314822 12.979755 7.1445093
-7.2410665 12.862243 7.143764
-7.4502425 12.744006 7.1445093
-7.6630807 12.631586 7.1504736
-7.8914585 12.542992 7.1720939
-8.0945749 12.412881 7.1720939
-8.3214169 12.317776 7.1944604
-8.5208101 12.180696 7.1944604
-8.7450504 12.077824 7.2168283
-8.9469481 11.942512 7.2220478
-9.1675177 11.830617 7.2436709
-14.653167 18.287092 11.341405
-14.66067 17.698231 11.122743
-14.909571 17.413771 11.095037
-15.182837 17.159512 11.089047
-15.484141 16.936371 11.106269
-15.724829 16.647226 11.083056
-15.985067 16.380211 11.077066
-16.274834 16.142912 11.094289
-16.470707 15.813722 11.050859
-16.690792 15.510885 11.027648
-16.932999 15.229913 11.022407
-12.304553 10.709867 7.8950191
-12.407642 10.449548 7.850976
-12.56652 10.238411 7.8450046
-12.723025 10.025827 7.8397794
-12.83914 9.7828217 7.812161
-12.986739 9.5652266 7.80619
-13.104274 9.3266411 7.7845445
-13.235286 9.0990028 7.7733488
-13.370072 8.874692 7.7666311
-13.476395 8.6326017 7.7457333
-13.604628 8.4056187 7.7397628
-13.729044 8.1767502 7.7337923
-13.849617 7.9460607 7.7278218
-13.967671 7.7143598 7.7225976
-14.091388 7.4859867 7.7225976
-14.155063 7.226882 7.6919994
-14.265281 6.9928083 7.6890144
-14.378608 6.7603426 7.6897607
-14.475494 6.5203409 7.6837907
-14.568379 6.2789779 7.6778207
-14.584538 6.0063758 7.6337934
-14.706201 5.778337 7.6472249
-14.798306 5.5381994 7.6472249
-14.870512 5.2909088 7.6390166
-14.942976 5.0442162 7.6330471
-15.023101 4.8003216 7.6330471
-15.088913 4.5520382 7.6278238
-15.149142 4.3024635 7.6218543
-15.218656 4.0557089 7.6226006
-15.272182 3.8048489 7.6173773
-15.285533 3.5449626 7.5942464
-15.330658 3.2934244 7.5890231
-15.370135 3.0410576 7.5830541
-15.417598 2.7904756 7.5830541
-15.450327 2.5374055 7.5778313
-15.489582 2.2855849 7.5778313
-15.524732 2.0331588 7.5778313
-15.545048 1.7789669 7.5726085
-15.565807 1.5251038 7.5696239
-15.582423 1.2710364 7.5666394
-15.601048 1.0172335 7.5666394
-15.60322 0.762559 7.5606709
-15.615106 0.50853515 7.5614166
-15.516592 0.25259647 7.774106
-15.508895 0.50507617 7.7733388
-15.500148 0.75752169 7.774106
-15.496461 1.0104141 7.7794757
-15.477962 1.2625155 7.7794757
-15.467553 1.5154771 7.7856126
-15.440836 1.7670411 7.7856126
-15.40851 2.0179381 7.7848454
-15.385742 2.2702627 7.7909822
-15.392084 2.5278401 7.8139958
-15.347392 2.7777689 7.8132291
-15.312163 3.0295877 7.819366
-15.227884 3.2713459 7.8024893
-15.172619 3.5187762 7.8024893
-15.125221 3.7682357 7.8086262
-15.060403 4.013535 7.8078589
-15.006337 4.2619061 7.8147631
-14.977496 4.5184259 7.8370109
-14.910718 4.7644124 7.8416138
-14.832644 5.0069718 7.842381
-14.765052 5.253386 7.8508201
-14.683324 5.4951673 7.853889
-14.597635 5.7356796 7.8569574
-14.513671 5.9771905 7.8630953
-14.413051 6.2120309 7.8623281
-14.319803 6.4502115 7.8676982
-14.26004 6.704596 7.893784
-14.160023 6.9412112 7.8999219
-14.0438 7.1700773 7.8991547
-13.936053 7.4034662 7.905293
-13.824427 7.6352458 7.9114308
-13.707617 7.8645892 7.9168019
-13.617268 8.110178 7.9398203
-13.492576 8.3363876 7.9451919
-13.364125 8.5606842 7.950563
-13.225565 8.7787724 7.9520974
-13.088494 8.9980879 7.9567013
-12.987721 9.2436876 7.9858603
-12.844175 9.4602232 7.9912319
-12.698237 9.6754608 7.9973707
-12.548694 9.8884525 8.0035095
-12.428831 10.12623 8.0311365
-12.270562 10.334101 8.0365076
-12.145795 10.571685 8.0664377
-11.974389 10.77003 8.0679731
-11.868202 11.029214 8.1163244
-11.697055 11.230481 8.1232319
-16.159184 16.028198 11.401732
-15.904739 16.297897 11.407891
-15.613081 16.528923 11.390184
-15.374117 16.816027 11.41405
-15.082072 17.04563 11.401732
-14.884582 17.384584 11.464861
-14.556505 17.572485 11.430986
-14.319482 17.870655 11.471789
-14.157555 18.270226 11.578805
-13.960583 18.634781 11.664268
-13.755471 18.997736 11.749735
-8.5022821 12.154211 7.4305573
-8.2973261 12.282116 7.4251909
-8.0963116 12.415544 7.4251909
-7.8678899 12.50553 7.4014273
-7.6402793 12.594 7.3791976
-7.4350471 12.718014 7.3799644
-7.2210464 12.826682 7.3738322
-6.9894462 12.902159 7.3508372
-6.7778053 13.012859 7.350071
-6.5657825 13.122826 7.3508372
-6.3460145 13.216924 7.3447056
-6.1300426 13.318467 7.3447056
-5.9130635 13.417881 7.3454719
-5.6891246 13.501071 7.3393402
-5.4691854 13.593304 7.3401065
-5.2472034 13.680524 7.3401065
-5.0075688 13.719566 7.3163471
-4.7840939 13.800702 7.3171134
-4.5583487 13.875291 7.3163471
-4.3314433 13.946188 7.3155804
-4.1042981 14.016312 7.3163471
-3.8760173 14.082735 7.3171134
-3.6455159 14.140996 7.3155804
-3.4044857 14.155324 7.293355
-3.1736288 14.208863 7.293355
-2.9422405 14.260137 7.2941213
-2.7091696 14.303132 7.2925887
-2.4762592 14.346842 7.293355
-2.2426438 14.386759 7.2941213
-2.0079629 14.419841 7.293355
-1.7729858 14.450614 7.293355
-1.5375388 14.477558 7.293355
-1.3016844 14.500667 7.293355
-1.0654851 14.519933 7.293355
-0.82970047 14.547571 7.2994862
-0.59280026 14.55915 7.2994862
-0.35574299 14.56687 7.2994862
-0.11859147 14.57073 7.2994862
0.11856657 14.567671 7.2979531
0.35570565 14.56534 7.2987194
0.59286255 14.560678 7.3002524
0.82970047 14.547571 7.2994862
1.0671645 14.54282 7.3048506
1.3037362 14.523523 7.3048506
1.5401238 14.5019 7.3056173
1.7757804 14.473392 7.3048506
2.0174582 14.488029 7.3278437
2.2530122 14.453271 7.3278437
2.4882293 14.416192 7.3286099
2.7242599 14.382801 7.3332086
2.9583163 14.338051 7.3339748
3.1913044 14.287999 7.3339748
3.4338224 14.277302 7.3562026
3.6691964 14.232853 7.363101
3.899972 14.169769 7.3623347
4.130096 14.104412 7.3623347
4.3623028 14.045547 7.3677001
4.5908213 13.974134 7.3684664
4.8322034 13.939485 7.3906956
5.0626531 13.870483 7.3968282
5.2910395 13.794814 7.4014273
5.5160184 13.709703 7.4029603
5.7420053 13.626564 7.4075599
5.9815564 13.573305 7.4305573
6.2023363 13.475536 7.431324
6.4254918 13.382452 7.4366903
6.6445203 13.280197 7.4389901
6.8654571 13.181144 7.4451227
7.084199 13.077067 7.4504895
7.3186383 13.000033 7.4734888
7.5323596 12.884471 7.4765553
7.7648959 12.799415 7.4995561
7.9779081 12.680398 7.5049229
8.1899376 12.559118 7.5110569
8.4181242 12.460927 7.5332923
8.6461554 12.35988 7.5562954
11.09813 15.327672 9.4798698
11.702285 15.620374 9.7774277
11.611839 14.984998 9.4967833
12.119095 15.12458 9.7089901
12.078757 14.581369 9.4852514
12.367398 14.444616 9.5259981
10.153623 11.475537 7.6759272
10.379354 11.352816 7.7058392
10.593259 11.214646 7.7280827
13.184563 13.510478 9.4568071
13.402725 13.294084 9.4568071
13.585235 13.043345 9.4345131
13.821596 12.844519 9.4521942
14.060782 12.646578 9.4737196
14.290234 12.438201 9.490633
14.491971 12.204941 9.4914017
14.651828 11.937389 9.4675703
14.817674 11.676424 9.4506569
13.460033 10.255914 8.4771509
13.625185 10.035466 8.4771509
15.296215 10.886701 9.4053011
15.092078 10.375513 9.1747112
15.160542 10.063157 9.1155357
15.155703 9.7083187 9.0164051
15.243862 9.4184198 8.976449
14.686335 8.7468939 8.5631618
15.568959 8.9325142 8.9918165
15.792854 8.7224102 9.037921
16.045176 8.5239277 9.1017027
15.819772 8.0768013 8.898078
15.95465 7.8209333 8.9011507
16.049303 7.5458479 8.8842478
16.17 7.2836142 8.8842478
16.254021 7.0054893 8.8665771
16.365894 6.739995 8.8665771
15.741348 6.1850653 8.4725437
16.690083 6.2461877 8.9272738
16.987518 6.044137 9.0325422
17.160677 5.7928333 9.0732689
17.333063 5.5384221 9.1155357
16.710217 5.0411549 8.7436609
16.509819 4.6889052 8.5977221
17.172192 4.5763183 8.9026871
16.320492 4.0660205 8.425703
16.341211 3.7897918 8.4034357
16.400734 3.5233045 8.4034357
16.466434 3.257966 8.4088106
16.473545 2.9815943 8.3865433
16.528969 2.7145505 8.3911505
16.569447 2.4449258 8.3903828
16.608566 2.1751006 8.3911505
16.655476 1.9060438 8.3980608
16.681244 1.6343918 8.3965254
16.717857 1.3636521 8.402668
16.739368 1.0914553 8.4034357
16.754917 0.81884462 8.4034357
16.813517 0.54756361 8.4272385
16.829397 0.27396777 8.4318457
16.760553 0 8.6846189
16.714195 0.2720924 8.661746
16.706032 0.54406315 8.6609573
16.696484 0.81598884 8.661746
16.635422 1.0846777 8.6380844
16.615562 1.3553081 8.6380844
16.589787 1.6254311 8.6372957
16.550545 1.8940356 8.6317749
16.517523 2.1631773 8.6317749
16.468079 2.4299684 8.6254654
16.426344 2.6976967 8.6254654
16.336824 2.9568491 8.6025934
16.286531 3.2223711 8.6025934
16.264662 3.4940727 8.6199446
16.238255 3.7659142 8.6372957
16.174807 4.0297251 8.6372957
16.064419 4.2811012 8.6144238
16.068747 4.5636377 8.6554356
15.992335 4.8245835 8.6554356
15.987086 5.1083436 8.6964502
16.735697 5.649375 9.1524839
16.947199 6.0297914 9.3205986
16.73838 6.2642632 9.2606106
16.550554 6.5030174 9.2140436
16.411528 6.7587881 9.1966801
15.425362 6.6483374 8.7035494
16.063406 7.2356 9.128809
15.942126 7.4954567 9.1280193
15.815275 7.7526126 9.126441
15.685635 8.008317 9.1256523
15.586831 8.2804346 9.1453819
15.653986 8.6457129 9.2661362
15.678994 8.9956446 9.3663816
15.428406 9.1888571 9.3048124
15.136841 9.3522968 9.2195683
14.165824 9.0742302 8.716959
14.017514 9.3044462 8.7177477
14.634663 10.061049 9.2022047
14.728343 10.482532 9.3671713
14.747133 10.861824 9.4903221
14.758664 11.245409 9.6142778
13.200327 10.401944 8.7082825
13.029266 10.615428 8.7082825
12.924617 10.884936 8.7556105
14.160085 12.32492 9.7271929
13.990457 12.583324 9.7500935
13.781551 12.807305 9.7485142
13.572361 13.030986 9.7493038
13.310851 13.202954 9.7145586
13.094183 13.417866 9.7145586
12.871954 13.627006 9.7129793
12.650498 13.836967 9.7145586
12.50641 14.134637 9.7793112
9.9349384 11.603603 7.9152231
9.736022 11.753239 7.9081326
12.081747 15.077971 10.011506
11.497699 14.8377 9.7264032
11.520587 15.377841 9.9562178
11.314348 15.626291 9.9964991
11.110054 15.88208 10.043101
10.519869 15.572034 9.7374582
10.202578 15.645464 9.6782351
7.9776168 12.679935 7.7624035
7.7433639 12.763922 7.7356248
7.5092659 12.844968 7.7096353
7.2991939 12.965494 7.7096353
7.0813966 13.071895 7.7033348
6.8473268 13.146336 7.6804967
6.6324372 13.256047 7.6804967
6.3907938 13.310186 7.6505723
6.1707559 13.406923 7.6474228
5.9468117 13.494463 7.6411233
5.7246046 13.58527 7.6387606
5.4998832 13.6696 7.6348238
5.2592406 13.711907 7.6096263
5.0353556 13.795695 7.6096263
4.8066525 13.865778 7.6041145
4.5803227 13.942179 7.6041145
4.3487234 14.001824 7.5970283
4.1202397 14.070753 7.5970283
3.8789713 14.093468 7.5741949
3.646024 14.142967 7.5678959
3.4156919 14.201918 7.5686836
3.180763 14.240804 7.5608101
2.9491587 14.293667 7.5623846
2.7163932 14.341269 7.5631723
2.4745896 14.337168 7.5387659
2.2411304 14.377048 7.5395532
2.0051422 14.399584 7.5332546
1.7704952 14.430314 7.5332546
1.5353789 14.45722 7.5332546
1.29972 14.478784 7.5324674
1.0606526 14.454078 7.5096369
0.82524365 14.469427 7.5096369
0.58918333 14.470317 7.5041265
0.35353535 14.476471 7.5033393
0.11785553 14.480308 7.5033393
-0.11785553 14.480308 7.5033393
-0.35353535 14.476471 7.5033393
-0.58912152 14.468799 7.5033393
-0.82463807 14.45881 7.5041265
-1.0589849 14.43135 7.4978285
-1.2937431 14.412201 7.4978285
-1.5281585 14.389234 7.4978285
-1.7621691 14.362453 7.4978285
-1.9957128 14.331868 7.4978285
-2.2273238 14.288478 7.4931054
-2.4608936 14.257817 7.4970412
-2.6909451 14.206916 7.4923182
-2.9215271 14.159745 7.4915309
-3.1516178 14.110316 7.4915309
-3.3812287 14.058625 7.4923182
-3.6092331 14.000256 7.4915309
-3.8366365 13.939653 7.4915309
-4.0758324 13.9191 7.5151477
-4.3018527 13.850913 7.5151477
-4.5272079 13.7805 7.5159349
-4.7504153 13.70355 7.5151477
-4.9723172 13.622985 7.5143604
-5.1933994 13.540246 7.5143604
-5.4136724 13.455329 7.5151477
-5.6496668 13.407433 7.5387659
-5.8671508 13.313697 7.5387659
-6.0881624 13.227475 7.545064
-6.3026586 13.126626 7.545064
-6.5154853 13.022299 7.545064
-6.7237782 12.909131 7.5419149
-6.9409699 12.812675 7.5505753
-7.1478562 12.696674 7.549788
-7.3543396 12.579959 7.5505753
-7.5636454 12.46768 7.5560861
-7.7898545 12.381498 7.5797062
-7.9911857 12.254335 7.5804935
-8.2151089 12.160415 7.6041145
-8.4110842 12.023841 7.6033273
-8.6315269 11.921036 7.6261621
-8.855401 11.820313 7.652935
-14.413701 18.60078 12.193175
-14.509344 18.107601 12.023128
-14.692133 17.736212 11.933759
-14.846859 17.340527 11.828578
-15.065452 17.026844 11.780339
-15.333393 16.771484 11.774804
-15.60435 16.519682 11.774804
-15.802957 16.193598 11.724194
-16.060112 15.92993 11.721031
-16.342594 15.69072 11.739219
-16.62042 15.445489 11.756616
-12.013512 10.805217 8.3723402
-12.143037 10.569283 8.3415928
-12.307645 10.365331 8.3376513
-12.398063 10.101162 8.2864084
-12.557251 9.8951969 8.2840433
-12.671878 9.6553764 8.2548771
-12.81756 9.4406204 8.2485704
-12.932345 9.2042751 8.2249231
-13.072928 8.9873857 8.2201939
-13.197206 8.7599478 8.2075825
-13.329076 8.5382328 8.2020645
-13.42617 8.2953587 8.1776304
-13.551574 8.0710526 8.1729021
-13.68115 7.8494048 8.1729021
-13.793788 7.6183233 8.16502
-13.907904 7.3885117 8.1602907
-14.016841 7.1563129 8.1547737
-14.090494 6.9071283 8.1311302
-14.191419 6.6723328 8.1256132
-14.288437 6.4360828 8.1200962
-14.38013 6.1978416 8.1137915
-14.467855 5.9583225 8.1074867
-14.564338 5.7225966 8.1082754
-14.571515 5.4533234 8.061779
-14.684139 5.2245979 8.075964
-14.765794 4.984406 8.0751762
-14.830482 4.7387743 8.067296
-14.894002 4.4932375 8.0609913
-14.966628 4.2506285 8.061779
-15.022076 4.0033212 8.0554752
-15.073442 3.7553356 8.0491705
-15.132571 3.5094883 8.0491705
-15.178768 3.2607946 8.0444431
-15.185079 3.0044432 8.0208035
-15.212517 2.7533574 8.0105591
-15.297336 2.5122795 8.0326233
-15.336201 2.2629526 8.0326233
-15.35894 2.0114462 8.0263186
-15.388135 1.7610099 8.0255308
-15.37087 1.5060042 8.0026798
-15.393347 1.2556137 8.0026798
-15.401123 1.0041978 7.9971642
-15.41239 0.75323278 7.9955883
-15.413489 0.5019691 7.9908605
-15.30754 0.24919328 8.1999464
-15.301455 0.49832052 8.1999464
-15.291318 0.74731576 8.1999464
-15.287674 0.9968006 8.2056065
-15.282967 1.2466102 8.2128839
-15.260651 1.4952053 8.2128839
-15.243292 1.7444341 8.2177362
-15.214375 1.9925137 8.218545
-15.226231 2.2467258 8.2436142
-15.186153 2.4940202 8.2428055
-15.152461 2.7424877 8.2476568
-15.107295 2.9890535 8.2484655
-15.068451 3.2370954 8.2549353
-15.012294 3.4815941 8.2541265
-14.966821 3.7287726 8.261405
-14.914358 3.9746146 8.267066
-14.847688 4.2168484 8.267066
-14.788648 4.4614539 8.2735357
-14.722699 4.7043347 8.278389
-14.645607 4.9438353 8.2791977
-14.568887 5.1835909 8.2824326
-14.455715 5.409986 8.267066
-14.406497 5.6605778 8.2905197
-14.280339 5.8810973 8.2719183
-14.267308 6.1492157 8.3212528
-14.174965 6.3849707 8.3269148
-14.067793 6.6142077 8.3261061
-13.970473 6.8482943 8.3333855
-13.867912 7.080277 8.3398552
-13.760164 7.3100257 8.3455172
-13.677692 7.554204 8.3689737
-13.56471 7.782598 8.3762531
-13.445318 8.0077686 8.3819151
-13.322187 8.2311134 8.3875771
-13.186445 8.4468679 8.3875771
-13.095023 8.6921215 8.4183159
-12.960519 8.9101067 8.4239779
-12.813772 9.1198835 8.4239779
-12.708625 9.3603849 8.4539089
-12.564194 9.5733261 8.4603806
-12.415009 9.7831087 8.4660435
-12.29745 10.01919 8.4959755
-12.140826 10.224839 8.5016384
-11.955699 10.406225 8.4895039
-11.819548 10.630761 8.5145826
-11.746745 10.916344 8.5890179
-11.571863 11.110284 8.5922546
-17.648352 17.505297 13.313954
-17.477554 17.909592 13.403275
-17.213917 18.223661 13.426825
-15.307281 16.742924 12.150639
-15.040762 16.99894 12.157131
-14.769962 17.250713 12.163625
-14.436952 17.42816 12.121422
-14.207264 17.730606 12.169306
-14.09592 18.190685 12.32595
-13.824312 18.452885 12.349488
-13.549675 18.713509 12.37465
-8.4536905 12.084748 7.8992109
-8.1925182 12.126975 7.8385983
-7.9882741 12.24987 7.8329415
-7.7637219 12.339962 7.8086987
-7.5383611 12.426002 7.7844567
-7.335866 12.548359 7.785265
-7.1306448 12.666102 7.785265
-6.9177861 12.769877 7.7788005
-6.7055302 12.874096 7.7747602
-6.4991407 12.989632 7.7796087
-6.2816243 13.082817 7.7731442
-6.0489211 13.142219 7.7489042
-5.8335962 13.237555 7.7480965
-5.6179419 13.332145 7.7489042
-5.4001908 13.421822 7.7489042
-5.1766872 13.496675 7.7424402
-4.9568338 13.580564 7.7432485
-4.7351265 13.659447 7.7432485
-4.49757 13.690284 7.7182016
-4.2745852 13.763118 7.7190099
-4.0499973 13.830872 7.7190099
-3.8247364 13.896416 7.7198176
-3.5976615 13.955369 7.7190099
-3.370034 14.012079 7.7190099
-3.131649 14.020913 7.6947722
-2.903321 14.071507 7.69558
-2.6736145 14.115417 7.6947722
-2.4432476 14.15558 7.6939645
-2.2143726 14.205396 7.7004275
-1.9828585 14.239557 7.7004275
-1.7510028 14.271442 7.7012353
-1.5181564 14.295053 7.6996198
-1.285545 14.320875 7.7012353
-1.0522743 14.339903 7.7012353
-0.81872487 14.35513 7.7012353
-0.58495849 14.366555 7.7012353
-0.35100028 14.372665 7.7004275
-0.11710864 14.388541 7.7068906
0.11712091 14.39005 7.7076988
0.35129488 14.384729 7.7068906
0.58538806 14.377105 7.7068906
0.8193261 14.365672 7.7068906
1.0530471 14.350433 7.7068906
1.2863542 14.329889 7.7060828
1.52421 14.352053 7.7303209
1.7576158 14.325342 7.7303209
1.9922205 14.306788 7.7367845
2.2245953 14.270975 7.7359767
2.4568453 14.234362 7.7367845
2.6879313 14.191004 7.7359767
2.9280112 14.191172 7.761024
3.1605856 14.150466 7.765872
3.3908463 14.098614 7.7666802
3.6311779 14.085379 7.7909212
3.8599641 14.024408 7.7909212
4.0877275 13.959723 7.7909212
4.3179874 13.902864 7.7973857
4.5437121 13.830737 7.7973857
4.7716913 13.764926 7.8030419
4.9987316 13.695354 7.8086987
5.2209883 13.612176 7.8086987
5.441298 13.523991 7.8078904
5.6653938 13.444754 7.8143549
5.88835 13.361802 7.8208199
6.1208301 13.298451 7.8410225
6.3417025 13.207943 7.8474874
6.5605731 13.112414 7.8531446
6.7557096 12.970437 7.8329415
7.0090561 12.938357 7.8814301
7.2261267 12.835706 7.8895121
7.454658 12.751558 7.911334
7.6659231 12.636271 7.9161835
7.8738022 12.514928 7.9194164
8.1044903 12.428085 7.9468975
10.404626 15.401446 9.9551411
10.725922 15.332954 10.022405
11.430271 15.786392 10.43904
11.489698 15.33661 10.263939
11.634916 15.014778 10.173965
11.680014 14.576609 10.004576
11.968818 14.44865 10.04915
12.477989 14.573783 10.276097
12.653381 14.300743 10.227462
12.862012 14.068317 10.20963
12.870047 13.624987 10.038613
13.091171 13.414779 10.039424
13.300269 13.192458 10.033751
13.480496 12.942784 10.009439
12.336728 11.464619 9.0204029
13.957636 12.553805 10.054823
14.156701 12.321975 10.052391
14.321826 12.061647 10.028889
14.481065 11.798262 10.004576
14.671186 11.560991 10.004576
14.364054 10.944735 9.6723566
14.350317 10.569553 9.5459785
13.565845 9.6551533 8.9184027
13.747357 9.4510431 8.9354019
13.967369 9.2711611 8.9791155
15.653423 10.027144 9.9567623
14.212881 8.7814283 8.9483538
14.285114 8.5079346 8.9054508
14.423016 8.2750416 8.9062605
14.694713 8.1159058 8.9912586
15.710113 8.3459272 9.5281582
16.455519 8.4013824 9.8959856
16.054928 7.8700891 9.5767612
16.190483 7.6122255 9.5824327
16.095749 7.2501688 9.4552565
16.097754 6.9381385 9.3888407
16.214146 6.6774998 9.3920803
16.178545 6.3568478 9.3102818
15.795642 5.9114475 9.0333557
16.418198 5.8415732 9.3337679
16.585604 5.5987091 9.3758821
16.794092 5.3662057 9.4431076
15.9992 4.8266549 8.9507818
16.033482 4.5536227 8.9273062
16.067509 4.2819242 8.9062605
16.517874 4.1151958 9.1175575
16.273455 3.7740777 8.9475441
16.255894 3.4921889 8.9054508
16.277966 3.2206764 8.8876429
16.250906 2.9412982 8.8455534
16.307066 2.6781075 8.8512192
16.349993 2.412544 8.8520279
16.432047 2.1519833 8.8763103
16.464899 1.8842342 8.8763103
16.503916 1.6170176 8.8819771
16.494911 1.3454669 8.8641691
16.516134 1.0768998 8.8649788
16.529966 0.80785084 8.8641691
16.549988 0.53898132 8.8690262
16.558079 0.26955095 8.8698349
16.449579 0 9.1018391
16.447399 0.26774919 9.1018391
16.440863 0.53542745 9.1018391
16.428471 0.8028906 9.1010094
16.402748 1.0695066 9.0951996
16.383167 1.3363519 9.0951996
16.356258 1.6025505 9.0935392
16.320557 1.8677157 9.0893898
16.286505 2.1329226 9.0885592
16.282278 2.4025521 9.1068192
16.230652 2.6655583 9.1010094
16.186592 2.9296579 9.1018391
16.13529 3.1924472 9.1010094
16.081188 3.4546578 9.1010094
16.054976 3.7234087 9.1192694
16.102871 4.0118032 9.182353
16.141262 4.3015795 9.2429514
16.069107 4.5637403 9.2429514
16.02573 4.8346581 9.2620449
16.093554 5.1423626 9.3483858
15.902519 5.368124 9.2869501
15.813035 5.6262574 9.2869501
16.169092 6.0512099 9.5526495
15.694141 6.1665168 9.3301201
15.561167 6.4085827 9.3118553
15.515422 6.6871533 9.3483858
15.801323 7.117547 9.5891895
15.748574 7.4044552 9.6290522
15.762094 7.7265425 9.7129374
15.952459 8.1445456 9.910634
16.297821 8.658144 10.211405
15.31884 8.4606113 9.6830368
15.150455 8.6924009 9.6647644
15.035333 8.954751 9.6830368
14.111407 8.7187328 9.1782026
13.898148 8.9027643 9.1325493
13.786391 9.1510334 9.1557913
15.205253 10.453318 10.209743
14.64038 10.419927 9.9430332
13.396944 9.8673582 9.2064257
13.176088 10.039561 9.1657515
13.920902 10.969763 9.806797
13.802189 11.245156 9.8508224
14.182402 11.944226 10.259602
13.983842 12.171518 10.25794
13.786107 12.399529 10.259602
13.901531 12.918803 10.500619
13.496544 12.958193 10.352678
13.393677 13.28511 10.438283
13.226019 13.552959 10.478178
13.031516 13.795928 10.500619
12.631919 13.816644 10.358497
12.329711 13.934934 10.295336
12.307381 14.374519 10.470697
12.092859 14.598392 10.488983
11.880879 14.827289 10.513087
11.478791 14.813299 10.3693
11.116385 14.838306 10.258771
10.900695 15.054993 10.284533
10.813478 15.458118 10.438283
11.006168 16.29188 10.878861
10.206958 15.652182 10.339381
9.8692551 15.68658 10.254616
7.6448646 12.601559 8.1554422
7.4107656 12.676478 8.1247759
7.2027144 12.794119 8.1239471
6.9878035 12.899126 8.1173172
6.7568536 12.972633 8.0932837
6.5407825 13.07286 8.0883112
6.2882342 13.096584 8.0385895
6.0698457 13.18768 8.0327883
5.8694844 13.318993 8.0535049
5.6472616 13.401725 8.046876
5.4099274 13.44602 8.0195303
5.1903501 13.532296 8.0195303
4.9658036 13.60514 8.01373
4.7436953 13.684165 8.01373
4.5165911 13.748183 8.0071011
4.2922139 13.819879 8.0071011
4.063333 13.876414 8.0004721
3.8373263 13.942159 8.0013008
3.607265 13.992621 7.9955006
3.3786798 14.048027 7.9946723
3.1495728 14.10116 7.9946723
2.9175134 14.140291 7.9888721
2.6811135 14.155009 7.9714723
2.4478109 14.182018 7.9631867
2.216877 14.221462 7.9640155
1.9789057 14.21117 7.9391594
1.7473289 14.241498 7.9391594
1.5152889 14.268053 7.9391594
1.2819105 14.280388 7.9333601
1.0492994 14.299361 7.9333601
0.81641024 14.314547 7.9333601
0.58147728 14.281057 7.9085059
0.348948 14.28863 7.9085059
0.11632628 14.292417 7.9085059
-0.11632628 14.292417 7.9085059
-0.348948 14.28863 7.9085059
-0.58099002 14.26909 7.9018784
-0.81325573 14.259237 7.9027066
-1.0451355 14.242618 7.9018784
-1.2768236 14.223719 7.9018784
-1.5081733 14.201052 7.9018784
-1.7391236 14.174622 7.9018784
-1.969613 14.144437 7.9018784
-2.1979663 14.100148 7.8960791
-2.4271827 14.062504 7.8960791
-2.655756 14.021133 7.8960791
-2.8818104 13.967251 7.8911085
-3.1107314 13.92726 7.8960791
-3.3370128 13.874782 7.8960791
-3.5736229 13.862123 7.9209328
-3.7983854 13.800675 7.9201045
-4.0229359 13.738458 7.9209328
-4.2455792 13.669726 7.9201045
-4.4679861 13.600233 7.9209328
-4.6887646 13.525705 7.9209328
-4.9083009 13.447595 7.9209328
-5.1377969 13.395279 7.9383311
-5.3601809 13.322379 7.9457879
-5.5763187 13.233367 7.9457879
-5.7909789 13.140848 7.9457879
-6.0041046 13.044847 7.9457879
-6.2156401 12.945391 7.9457879
-6.4295483 12.850539 7.9507589
-6.6593075 12.785353 7.9764438
-6.8665318 12.675265 7.9764438
-7.0719371 12.56182 7.9764438
-7.2739573 12.442461 7.9747863
-7.4825091 12.333937 7.9822435
-7.6822767 12.21051 7.9822435
-7.8791914 12.082594 7.9814148
-8.1008024 11.991211 8.0071011
-8.3009186 11.866356 8.0129013
-8.5131674 11.757569 8.0319595
-8.7572947 11.68936 8.0816813
-15.111147 19.50083 13.650569
-14.339959 17.89621 12.689064
-14.592892 17.616409 12.657436
-14.775961 17.257721 12.57088
-14.912381 16.853846 12.451871
-15.177631 16.601114 12.446046
-15.471656 16.379204 12.466851
-15.756169 16.145655 12.482663
-17.672514 17.529263 13.772968
-17.915331 17.200722 13.74216
-18.132305 16.850494 13.696363
-11.871328 10.677335 8.8346262
-12.007357 10.451188 8.8080769
-12.110508 10.199306 8.7607861
-12.206339 9.9449577 8.7118406
-12.386614 9.7607336 8.7259436
-12.531923 9.5487375 8.7176476
-12.677238 9.3372669 8.7118406
-12.789675 9.1027336 8.6861248
-12.927498 8.8874054 8.6803179
-13.024231 8.6451321 8.6496258
-13.153123 8.4255228 8.6429901
-13.279595 8.2047977 8.6371841
-13.401082 7.9814224 8.6305485
-13.518818 7.7562685 8.6239128
-13.605222 7.5141783 8.5998592
-13.71646 7.2868085 8.5940533
-13.82257 7.057128 8.5874176
-13.935608 6.8312035 8.5874176
-13.994762 6.5798712 8.5567303
-14.091808 6.3475137 8.551754
-14.191884 6.1167078 8.5509243
-14.279863 5.8809013 8.5451193
-14.366719 5.6449485 8.5409718
-14.442661 5.4051003 8.5326786
-14.52449 5.1677947 8.5301905
-14.566919 4.917273 8.5069695
-14.635034 4.6763229 8.5011644
-14.702037 4.4353251 8.4970179
-14.759307 4.1917477 8.4895544
-14.822684 3.9501839 8.487896
-14.876292 3.7062185 8.4829197
-14.922967 3.4608779 8.4762859
-14.977323 3.2175188 8.4762859
-15.017419 2.971271 8.4704809
-15.05052 2.7240372 8.4630175
-15.094344 2.4789424 8.4638472
-15.120832 2.2311738 8.4572134
-15.156632 1.9849515 8.4580421
-15.186934 1.7379845 8.4580421
-15.202769 1.4895341 8.4522371
-15.178697 1.2381049 8.4265318
-15.198334 0.99097538 8.4273605
-15.201973 0.74294931 8.4215565
-15.210554 0.49536014 8.4207277
-15.100182 0.24581768 8.6278076
-15.09418 0.4915702 8.6278076
-15.084179 0.73719251 8.6278076
-15.082053 0.98339355 8.6346045
-15.064049 1.2287533 8.6346045
-15.053893 1.4749476 8.6414013
-15.026414 1.7196147 8.6405516
-15.04067 1.9697648 8.6660404
-15.006617 2.2143204 8.6660404
-14.980327 2.4602172 8.6728373
-14.936833 2.7034607 8.6719875
-14.902522 2.9485381 8.6787853
-14.852554 3.1907153 8.6787853
-14.808793 3.4343991 8.6847324
-14.752374 3.6753459 8.6855822
-14.700655 3.9176636 8.6915302
-14.644955 4.1592708 8.6974783
-14.58101 4.3988137 8.7008762
-14.51598 4.6382813 8.7059746
-14.43574 4.8729916 8.7042751
-14.36432 5.110806 8.7102232
-14.321018 5.3595762 8.7357149
-14.242958 5.5963202 8.7425127
-14.159607 5.8313761 8.7484608
-14.062815 6.0610785 8.7484608
-13.977213 6.2958956 8.7578077
-13.872884 6.5225677 8.7578077
-13.774227 6.7520952 8.7637558
-13.667798 6.9781089 8.7671556
-13.602323 7.2261729 8.7994471
-13.4829 7.44662 8.7994471
-13.370228 7.6710162 8.8062458
-13.251264 7.8921938 8.8113451
-13.131171 8.1130934 8.8181429
-13.034953 8.3498259 8.8436384
-12.905993 8.5666485 8.8495874
-12.774651 8.7823257 8.8563871
-12.666369 9.0149736 8.8818836
-12.534725 9.2323017 8.8937826
-12.382791 9.4351053 8.8937826
-12.27198 9.6704006 8.9260798
-12.125637 9.8792076 8.9354296
-11.940468 10.0561 8.9184303
-11.817848 10.28624 8.9507294
-11.682041 10.507085 8.9762297
-11.550887 10.734331 9.0085316
-16.124086 15.480927 12.770022
-17.528822 17.386734 14.104845
-17.251841 17.678297 14.11167
-15.742773 16.666224 13.097475
-15.496608 16.950006 13.120501
-15.299775 17.291676 13.190433
-16.1884 18.907393 14.220021
-15.884216 19.175285 14.225141
-15.550386 19.406818 14.207224
-15.184876 19.595976 14.162859
-14.823609 19.78676 14.124467
-14.498701 20.024214 14.123614
-14.229055 20.340767 14.181628
-8.075429 11.953651 8.2413664
-7.8749189 12.076042 8.2362728
-7.652781 12.163629 8.2099533
-7.4545512 12.287851 8.2108021
-7.2528043 12.406279 8.2099533
-7.0287657 12.485135 8.1853323
-6.8189516 12.587435 8.1785412
-6.6131635 12.696759 8.1785412
-6.4062872 12.804049 8.17939
-6.1918821 12.89591 8.1725988
-5.9805341 12.993637 8.1717491
-5.7682452 13.08926 8.1717491
-5.537694 13.141706 8.147131
-5.3230534 13.230101 8.147131
-5.105938 13.312217 8.1454334
-4.8895979 13.396354 8.147131
-4.6670046 13.462935 8.1403399
-4.437048 13.506061 8.121665
-4.2166228 13.576493 8.121665
-3.9946625 13.641902 8.1208162
-3.7720845 13.705115 8.1208162
-3.5462816 13.756065 8.1157227
-3.3215573 13.810521 8.1148739
-3.096324 13.862757 8.1148739
-2.8702703 13.911319 8.1148739
-2.6376493 13.925538 8.0970488
-2.4103816 13.965162 8.0962
-2.1827519 14.002545 8.0962
-1.9547486 14.037691 8.0970488
-1.7259988 14.067649 8.0970488
-1.4966346 14.092402 8.0962
-1.2671876 14.116375 8.0970488
-1.037248 14.135131 8.0970488
-0.80754125 14.159041 8.1021414
-0.57702851 14.171795 8.1029902
-0.34627825 14.17931 8.1029902
-0.11543628 14.183067 8.1029902
0.11537582 14.175639 8.0987463
0.34627825 14.17931 8.1029902
0.57696801 14.17031 8.1021414
0.80821806 14.170909 8.1089315
1.0411626 14.188477 8.1276064
1.2721028 14.17113 8.1284552
1.5038526 14.160367 8.1352463
1.7339603 14.132539 8.1343975
1.9637654 14.102443 8.1343975
2.1930501 14.06861 8.1343975
2.4235229 14.0413 8.1403399
2.6581118 14.033571 8.1598644
2.8882856 13.998633 8.1658068
3.1157582 13.949766 8.1658068
3.3528299 13.940547 8.1912756
3.5792954 13.884127 8.1912756
3.8166432 13.867011 8.2167454
4.0447736 13.813034 8.2226877
4.4264765 14.252171 8.5258656
4.4940948 13.679707 8.2260838
4.7151899 13.601935 8.2243862
4.9395304 13.533157 8.2303295
5.1628804 13.460677 8.2362728
5.3807406 13.373479 8.2354231
5.6040554 13.29919 8.2447624
5.8197832 13.206211 8.2447624
6.0389404 13.120533 8.2515554
6.2208266 12.956193 8.2108021
6.450839 12.893092 8.2362728
6.6646504 12.79561 8.2422152
6.9145169 12.763844 8.2931604
7.1206284 12.64831 8.2923117
7.3540668 12.579493 8.3245792
7.5578485 12.458124 8.3245792
7.7651687 12.342261 8.3305225
7.9893923 12.251586 8.355999
8.2185421 12.165495 8.3874207
10.83328 15.486426 10.797172
11.213314 15.486753 10.923221
11.158232 14.894163 10.631964
11.275026 14.550342 10.516161
11.56349 14.431187 10.564694
11.943283 14.417826 10.69583
12.265572 14.325688 10.774178
12.420078 14.037066 10.707752
12.460852 13.629533 10.55022
12.650346 13.392398 10.524675
13.168555 13.494076 10.771623
13.346236 13.238053 10.739261
11.998438 11.519843 9.502573
13.624836 12.661668 10.626003
13.885645 12.489055 10.669432
14.146679 12.313251 10.714564
14.309883 12.051589 10.688166
14.263803 11.62125 10.511052
14.390202 11.339573 10.466778
14.537307 11.076746 10.441236
14.331744 10.555874 10.168824
14.405771 10.25295 10.101583
14.502001 9.9698458 10.053921
14.627605 9.7094078 10.03009
14.847684 9.5110102 10.073496
15.586167 9.6299124 10.466778
15.735726 9.371891 10.463372
15.815092 9.0737295 10.416546
15.618942 8.626358 10.193508
15.444154 8.2046375 9.990942
15.476151 7.9013658 9.9271164
15.604049 7.6490698 9.927968
15.725138 7.393436 9.9271164
15.854262 7.1413932 9.9339247
15.967034 6.8817983 9.933073
16.119631 6.638576 9.9594545
15.398077 6.0501881 9.45154
15.423407 5.77214 9.4081631
15.586849 5.5457807 9.45154
15.717371 5.3056245 9.4770565
15.835686 5.0599666 9.4974699
15.766288 4.7563896 9.4081631
15.76572 4.4775763 9.3630886
15.804869 4.2119317 9.3443785
15.903111 3.9620357 9.3630886
16.042353 3.7204816 9.4081631
16.44578 3.5329816 9.6097536
17.309101 3.4246917 10.080305
16.096439 2.9133413 9.3452291
16.13879 2.6504717 9.3435287
16.191574 2.3891685 9.3503323
16.185514 2.1196966 9.3256693
16.228226 1.8571495 9.3316221
16.257786 1.5929023 9.3324728
16.291945 1.3289111 9.3384256
16.278738 1.0614208 9.3197165
16.293858 0.7963118 9.3197165
16.304661 0.53099179 9.3197165
16.366215 0.26642758 9.351182
16.237654 0 9.5730095
16.235502 0.26429969 9.5730095
16.230526 0.52857745 9.5738802
16.219772 0.79269111 9.5738802
16.204721 1.0565947 9.5738802
16.175072 1.3193779 9.5677853
16.151455 1.5824842 9.5677853
16.111818 1.8438278 9.5608206
16.079672 2.1058352 9.5608206
16.031576 2.3655598 9.5538549
16.034668 2.6333718 9.5799751
16.021652 2.8998053 9.5991306
15.97233 3.1602049 9.5991306
15.910112 3.4179063 9.5939064
15.894094 3.6860979 9.6191578
15.788997 3.9336061 9.5930357
15.765692 4.2014914 9.6191578
15.652594 4.4454474 9.5930357
15.535744 4.6868386 9.5669146
15.455992 4.938643 9.5660439
15.405741 5.2004294 9.5860701
15.360797 5.4653511 9.6121912
15.269802 5.7146544 9.6121912
15.169264 5.9602828 9.6087084
15.249149 6.2800837 9.7227812
15.88438 6.8461742 10.19751
15.699427 7.0716491 10.151333
15.582242 7.3262515 10.151333
15.452968 7.5750098 10.146106
15.326305 7.8248615 10.145234
15.225621 8.0885439 10.164402
15.132051 8.3574476 10.191411
15.383743 8.8262482 10.45631
14.103073 8.3995152 9.6774988
15.061893 9.3059893 10.438009
15.305535 9.8042974 10.716044
15.172256 10.070933 10.736094
14.389923 9.8927937 10.295097
14.190867 10.099998 10.268957
14.093613 10.380481 10.319495
14.010959 10.675693 10.384851
13.906156 10.958142 10.438009
14.033104 11.433291 10.671589
13.877941 11.687814 10.696867
13.74497 11.963604 10.743067
13.806784 12.418126 10.947935
13.630991 12.667388 10.970604
13.233126 12.705281 10.815421
13.000423 12.895043 10.79537
12.788809 13.104942 10.79537
12.785016 13.534968 10.976707
12.622888 13.806766 11.02902
12.118186 13.69587 10.781423
11.866727 13.859854 10.757014
11.687665 14.109245 10.801473
11.652493 14.542263 10.986298
11.370766 14.673894 10.944448
11.045296 14.743416 10.860753
10.738814 14.831419 10.79537
10.495134 15.003038 10.794498
10.492919 15.532142 11.050818
7.9867239 12.247494 8.6202078
7.7572541 12.329682 8.5880365
7.532589 12.416487 8.5619526
7.3079042 12.500528 8.5367384
7.0976777 12.607543 8.5297832
6.8852034 12.709732 8.5219593
6.6576605 12.78219 8.496747
6.4487233 12.888864 8.496747
6.2291422 12.973512 8.4845762
6.0171475 13.073185 8.4845762
5.7678819 13.088437 8.4324188
5.536902 13.139826 8.4063416
5.33495 13.259669 8.4263344
5.1273923 13.368152 8.4411116
4.9096255 13.451224 8.4419804
4.6861663 13.518211 8.4350271
4.4540057 13.557678 8.4132957
4.2423587 13.659357 8.4324188
5.6895561 19.430019 11.9361
5.3678284 19.502934 11.925631
3.5675941 13.838737 8.4254646
3.3418689 13.894973 8.4254646
3.1056166 13.904361 8.3993883
2.8770969 13.944405 8.3941727
2.6412377 13.944484 8.3672285
2.4141645 13.987081 8.3680973
2.1859505 14.023066 8.3672285
1.9557815 14.045108 8.3602753
1.7269106 14.075081 8.3602753
1.497738 14.102791 8.3611441
1.2640347 14.081253 8.3350706
1.0345594 14.098492 8.3342018
0.8050257 14.114935 8.3350706
0.5747509 14.115858 8.3289871
0.34487548 14.121869 8.3281183
0.11470471 14.093183 8.3089981
-0.11462072 14.082864 8.3029146
-0.34383181 14.079133 8.3029146
-0.57265192 14.064307 8.2985697
-0.80191994 14.060481 8.3029146
-1.0306756 14.045566 8.3029146
-1.2591583 14.026929 8.3029146
-1.4871516 14.003109 8.3020458
-1.713626 13.966806 8.2959623
-1.9407363 13.937063 8.2959623
-2.1675591 13.905084 8.2968311
-2.3933539 13.866508 8.2959623
-2.6190159 13.827163 8.2968311
-2.8437331 13.782701 8.2968311
-3.0747662 13.766238 8.3159504
-3.2980866 13.712934 8.3150816
-3.5208545 13.657434 8.3150816
-3.7430809 13.599737 8.3159504
-3.9639473 13.537009 8.3159504
-4.1833262 13.469287 8.3150816
-4.4024715 13.400811 8.3159504
-4.6200128 13.327377 8.3159504
-4.8514934 13.291956 8.3420238
-5.0666752 13.20985 8.3411541
-5.2810202 13.12563 8.3411541
-5.4939661 13.037932 8.3411541
-5.7054563 12.94678 8.3411541
-5.9339256 12.892373 8.3672285
-6.1429882 12.794079 8.3672285
-6.3557005 12.702942 8.3741817
-6.5616241 12.597808 8.3741817
-6.7658086 12.489335 8.3741817
-6.9739866 12.387832 8.381135
-7.1746993 12.272676 8.381135
-7.372746 12.153007 8.3802662
-7.5931363 12.068827 8.4063416
-7.7877693 11.9424 8.4054728
-7.9885516 11.825052 8.4132957
-8.2010975 11.72366 8.4350271
-8.3674898 11.556374 8.4115572
-14.766961 19.711147 14.520237
-15.107623 19.496281 14.541201
-15.417403 19.240854 14.53596
-15.726653 18.985075 14.534213
-16.027807 18.719826 14.528972
-16.351986 18.480873 14.548189
-16.641634 18.202423 14.540327
-16.906206 17.897902 14.514997
-15.947587 16.341805 13.461779
-16.155741 16.024784 13.415503
-16.415504 15.760721 13.416376
-17.956762 16.687361 14.452106
-18.218292 16.385935 14.445992
-11.83365 10.299994 9.2491789
-11.96699 10.078435 9.2239399
-12.085962 9.8468828 9.1908684
-12.211016 9.6223602 9.1656313
-12.32258 9.3892279 9.1334333
-12.464268 9.1804066 9.1264715
-12.633692 8.9917164 9.1421356
-12.738237 8.7572927 9.1134186
-12.869254 8.5422621 9.1064577
-12.997891 8.326086 9.1003666
-13.122904 8.1079855 9.0942755
-13.215097 7.8706536 9.0681715
-13.331216 7.648634 9.0612106
-13.415189 7.4092231 9.0351076
-13.523585 7.1843438 9.0281467
-13.629532 6.9585719 9.0220566
-13.731714 6.7312555 9.0159664
-13.838124 6.5062251 9.0150957
-13.931428 6.2752719 9.0081358
-13.982937 6.0266519 8.9768152
-14.079181 5.7982535 8.9768152
-14.160706 5.564002 8.9698544
-14.23972 5.3291507 8.9637651
-14.324576 5.0966654 8.9637651
-14.395849 4.8595257 8.957675
-14.463202 4.6214175 8.9515848
-14.533682 4.3845358 8.9498453
-14.556281 4.1340871 8.9211369
-14.610237 3.8935676 8.9141769
-14.660222 3.6523879 8.907218
-14.713418 3.4122798 8.9046078
-14.758354 3.1704786 8.8993883
-14.806558 2.9295511 8.8985186
-14.842116 2.6863177 8.8924294
-14.88242 2.4441381 8.8915596
-14.908553 2.1998506 8.8846006
-14.943849 1.9570848 8.8854704
-14.973723 1.713585 8.8854704
-14.987885 1.4684802 8.8785114
-15.011271 1.2244483 8.8793812
-14.985044 0.97706825 8.8532848
-14.988647 0.73252362 8.8471966
-14.998584 0.48845693 8.8471966
-14.915977 0.24281898 9.0718088
-14.908587 0.485526 9.0709181
-14.897246 0.72805673 9.0700283
-14.895105 0.97120398 9.0771484
-14.890451 1.2145932 9.0851574
-14.867252 1.4566609 9.0842676
-14.841573 1.6984617 9.0842676
-14.823569 1.9413327 9.0913877
-14.790007 2.1823583 9.0913877
-14.764078 2.4247029 9.0985069
-14.719775 2.6641746 9.0967274
-14.685946 2.9056873 9.1038465
-14.636704 3.144345 9.1038465
-14.593565 3.3844841 9.1100769
-14.537962 3.6219285 9.1109667
-14.481325 3.8592131 9.113637
-14.426445 4.0972128 9.1198664
-14.369053 4.3348703 9.1269865
-14.260345 4.5565987 9.1038465
-14.266103 4.8157277 9.1563578
-14.192721 5.0497518 9.1608076
-14.11276 5.2816362 9.1634779
-14.034456 5.5143962 9.1697083
-13.948253 5.7443333 9.1732693
-13.859626 5.9735041 9.1777191
-13.763227 6.1995077 9.1794996
-13.705532 6.4438848 9.2097626
-13.609344 6.6712694 9.2168837
-13.498953 6.8919044 9.2168837
-13.394033 7.1155205 9.223114
-13.28541 7.3375459 9.2293453
-13.174374 7.5586476 9.2364664
-13.087326 7.7945561 9.2631712
-12.968683 8.012701 9.2702932
-12.843939 8.2274675 9.2756338
-12.719296 8.4427242 9.2836456
-12.616379 8.6735172 9.3103523
-12.481877 8.883666 9.3165836
-12.379239 9.1177797 9.3495235
-12.202406 9.2976608 9.3290472
-12.097748 9.5331039 9.3664398
-11.885361 9.683445 9.3228159
-11.825832 9.9595547 9.4020529
-11.666572 10.154569 9.4056139
-11.536753 10.37641 9.4358864
-11.372764 10.568799 9.4412289
-15.827259 15.195939 13.342773
-15.588245 15.461888 13.351705
-15.333482 15.712519 13.350811
-15.187645 16.078533 13.449949
-14.954645 16.357216 13.477637
-14.612451 16.514866 13.409758
-14.320688 16.725981 13.390108
-15.616358 18.851929 14.886561
-15.314788 19.112793 14.89371
-15.029565 19.395548 14.921413
-14.694251 19.614092 14.903541
-14.352363 19.822105 14.882092
-14.034556 20.062725 14.889242
-13.729994 20.32382 14.915158
-7.7554846 11.892892 8.6341066
-7.5616555 12.01879 8.6349964
-7.3407521 12.100269 8.6065388
-7.1428242 12.218151 8.6065388
-6.9430032 12.332796 8.6065388
-6.7357707 12.433887 8.5994244
-6.5331678 12.543174 8.6003132
-6.3281374 12.647853 8.6003132
-6.1170001 12.739952 8.5940886
-5.9082103 12.836502 8.5931997
-5.6813874 12.892164 8.5674114
-5.4707894 12.982932 8.5674114
-5.2587419 13.070259 8.5674114
-5.029068 13.111802 8.5398464
-4.8154831 13.193296 8.5407352
-4.5996194 13.268548 8.5398464
-4.3834949 13.343047 8.5407352
-4.1652961 13.411233 8.5398464
-3.946861 13.478659 8.5407352
-3.7153063 13.498823 8.514061
-3.4950943 13.557509 8.514061
-3.2739561 13.612602 8.514061
-3.0516319 13.662663 8.5131712
-2.8291364 13.711955 8.514061
-2.6055725 13.756188 8.514061
-2.3810697 13.795337 8.5131712
-2.156208 13.832265 8.5131712
-1.9263388 13.833671 8.4936113
-1.7007354 13.861742 8.4927216
-1.4750375 13.889042 8.4936113
-1.2489014 13.912667 8.4945002
-1.0221729 13.929694 8.4936113
-0.79497141 13.938648 8.4900541
-0.56828463 13.957046 8.4945002
-0.34099531 13.962985 8.4936113
-0.11377034 13.978382 8.5007238
0.11375844 13.97692 8.499835
0.34131658 13.97614 8.5016127
0.56870097 13.967272 8.5007238
0.79855132 14.001417 8.5282869
1.0261321 13.983647 8.5265083
1.2537382 13.966549 8.5273981
1.4807507 13.942838 8.5265083
1.7130215 13.961879 8.5540733
1.9400517 13.932147 8.5540733
2.1681442 13.908836 8.560298
2.3944993 13.873144 8.5611868
2.6199946 13.832331 8.5611868
2.8439095 13.783556 8.5585194
3.0710747 13.749711 8.5674114
3.3047297 13.740554 8.5940886
3.5275812 13.683527 8.5931997
3.7525566 13.634165 8.5994244
3.9863112 13.613382 8.6261024
4.2078013 13.54809 8.6269922
4.4163551 13.443071 8.6047602
6.578649 18.977467 12.214196
6.8605037 18.796175 12.167782
5.1107645 13.3248 8.6785746
5.3313422 13.250703 8.6856899
5.5173535 13.093434 8.6403322
5.747437 13.042043 8.6670122
5.9632406 12.956064 8.6732378
6.1777673 12.866513 8.6794643
6.3916121 12.774717 8.6865788
6.5980234 12.667691 8.6856899
6.8298144 12.607487 8.7194881
7.0334034 12.493373 8.7185984
7.2424693 12.388599 8.7266035
7.4484692 12.277827 8.73283
7.6706963 12.192103 8.7595148
7.8729243 12.072984 8.7648516
8.0937777 11.980813 8.7924271
8.3187408 11.891834 8.8253412
11.01608 15.214353 11.422672
10.90432 14.555239 11.059629
11.190996 14.441902 11.110467
11.451181 14.291026 11.136333
11.723448 14.152442 11.175578
11.923635 13.92632 11.148819
11.998094 13.560142 11.010577
12.217221 13.363052 11.010577
12.455269 13.185879 11.030198
12.691803 13.005539 11.050711
12.839338 12.735264 10.9972
13.020597 12.501231 10.976688
13.222355 12.287639 10.976688
13.445687 12.093348 10.9972
13.731461 11.951846 11.070332
14.150801 11.917612 11.250504
14.01202 11.416114 10.990957
14.108443 11.117546 10.923181
14.159231 10.78867 10.825089
14.583281 10.741139 11.014145
14.652234 10.428363 10.936557
14.722154 10.121197 10.864325
14.921598 9.9045525 10.891077
13.692335 8.7709265 9.8883286
15.295962 9.4506102 10.933882
15.387287 9.1643677 10.891077
15.099472 8.6631508 10.58614
15.303931 8.4523773 10.631608
15.612985 8.2943287 10.751081
15.473015 7.8997645 10.564744
15.403426 7.550725 10.43192
15.375727 7.2291551 10.33209
15.461959 6.9646845 10.312482
15.571929 6.7115078 10.311591
15.680464 6.4577131 10.312482
15.793048 6.205379 10.318722
15.215388 5.6942902 9.8794203
15.23429 5.4203405 9.8330965
15.321886 5.172123 9.8339872
15.413811 4.9251652 9.8402233
15.597124 4.7053561 9.9070377
15.744931 4.4716721 9.9533653
16.500975 4.3974414 10.384678
15.892091 3.9592905 9.9596014
17.113764 3.9689589 10.683318
16.793409 3.6076615 10.445291
16.851345 3.3341224 10.446182
15.91853 2.8811409 9.8375511
15.973437 2.6233158 9.8437862
15.977791 2.3576231 9.821516
16.060528 2.103328 9.8500223
16.08827 1.8411331 9.8473501
16.082575 1.5757356 9.8268604
16.073973 1.3111314 9.8072634
16.10634 1.05018 9.81528
16.162268 0.78988075 9.8402233
16.142237 0.52570212 9.821516
16.145725 0.26283821 9.8197346
16.025307 0 10.047573
16.023184 0.26084334 10.047573
16.053112 0.52279961 10.070342
16.042475 0.78402627 10.070342
15.979754 1.0419263 10.040288
15.992529 1.3044882 10.060324
15.970623 1.5647668 10.061234
15.899743 1.8195581 10.033913
15.856498 2.0766077 10.026627
15.889573 2.3446062 10.070342
16.860199 2.7689486 10.712646
16.769987 3.0352485 10.685305
16.758286 3.3157103 10.710822
16.736204 3.5953722 10.732696
16.634401 3.8577871 10.706265
15.683896 3.9074218 10.134098
15.583125 4.1528382 10.111327
15.439404 4.3849001 10.063056
15.332609 4.6255569 10.041199
15.253904 4.8740702 10.040288
15.172549 5.1217117 10.040288
15.088541 5.3684835 10.041199
15.027729 5.6240597 10.060324
14.935548 5.8684516 10.061234
15.556822 6.4067931 10.548614
15.450478 6.6591625 10.548614
15.272461 6.8793268 10.502143
15.147942 7.1220579 10.494853
15.097867 7.4009404 10.542235
15.014234 7.6655331 10.569571
15.059471 8.0002766 10.691684
14.068666 7.7701397 10.076717
13.90379 7.9771419 10.050305
13.777097 8.2053699 10.053948
14.682626 9.07166 10.821102
14.861115 9.5196142 11.065396
14.858054 9.8623743 11.18118
13.222403 9.0901461 10.060324
14.529165 10.340773 11.18118
14.333165 10.556921 11.161122
14.158276 10.787942 11.160211
13.360757 10.528364 10.665256
13.160573 10.722408 10.643384
13.623696 11.473692 11.167504
13.517401 11.765529 11.235885
13.57713 12.211571 11.449257
12.834361 11.927073 10.985174
12.934312 12.418386 11.242268
12.70775 12.604742 11.222208
12.5009 12.809916 11.222208
12.313704 13.036011 11.243179
12.157782 13.298038 11.296975
11.938755 13.493079 11.296063
11.676877 13.638117 11.256856
11.453343 13.826374 11.256856
11.271334 14.066577 11.301534
11.254685 14.524093 11.520389
10.933067 14.593612 11.432842
10.667637 14.733116 11.404573
10.408072 14.878582 11.384512
10.667768 15.790963 11.948168
7.8606753 12.0542 9.0227423
7.6394815 12.14249 8.9945478
7.4129901 12.219344 8.9608984
