# .PCD v0.7 - Point Cloud Data file format
VERSION 0.7
FIELDS x y z
SIZE 4 4 4
TYPE F F F
COUNT 1 1 1
WIDTH 1521
HEIGHT 1
VIEWPOINT 0 0 0 1 0 0 0
POINTS 1521
DATA ascii
4.7845635 4.7457805 0.092054754
1.2063133 1.277074 0.023996877
3.4157765 3.8604813 0.070412815
4.0251546 4.8591309 0.086190939
1.7508023 2.259398 0.039044969
1.4205346 1.961906 0.033086959
1.0760524 1.5928265 0.026257623
1.4753218 2.3449337 0.037843946
1.3538394 2.3158088 0.036642924
1.1159725 2.0600278 0.032003686
0.99818724 1.995046 0.030472971
0.85199034 1.8510809 0.027835434
1.0302796 2.4449944 0.036242586
0.73159707 1.9074221 0.027906083
0.66234761 1.9106779 0.027623489
0.58241916 1.8752471 0.026822809
0.51695466 1.8782514 0.026610864
0.45151299 1.8773211 0.02637537
0.38703239 1.8758272 0.026163425
0.31638676 1.8330675 0.025409844
0.25560239 1.8355645 0.025315646
0.18989395 1.7880529 0.024562063
0.1312144 1.7881284 0.024491414
0.074414842 1.8276254 0.024985952
0.014886913 1.8290792 0.024985952
-0.043562472 1.7837844 0.024373667
-0.10150272 1.7797002 0.024350118
-0.15937749 1.7754532 0.024350118
-0.22275187 1.8155258 0.024985952
-0.28172851 1.8073132 0.024985952
-0.34201074 1.8056548 0.025103701
-0.4017303 1.7986132 0.02517435
-0.47297257 1.8346658 0.025880832
-0.53534645 1.8282256 0.026022129
-0.59833735 1.8212966 0.026186975
-0.67680907 1.8542985 0.026964106
-0.75482517 1.8760686 0.027623489
-0.8453849 1.9183414 0.028636117
-0.97229755 2.0250163 0.030684916
-7.3180251 14.050039 0.21639578
-7.802763 13.85998 0.21726711
-8.2828503 13.653194 0.21813844
-9.3180151 14.289004 0.23302169
-9.2307205 13.195529 0.21997529
-9.7235594 12.979143 0.22152956
-11.228589 14.013232 0.24529094
-11.719129 13.687465 0.24613872
-12.191012 13.334385 0.2467981
-12.595704 12.907064 0.24635066
-13.082521 12.560684 0.24774009
-2.2098067 1.9875488 0.040599231
-2.1955302 1.8490455 0.039209813
-2.169245 1.7093793 0.037726197
-10.413522 7.6699543 0.17666788
-2.1267014 1.4620662 0.035253506
-2.1542923 1.3799794 0.034947366
-2.1151226 1.2597257 0.033628598
-2.2998798 1.270226 0.035889342
-2.2555575 1.1515772 0.034594122
-2.2044778 1.0364721 0.033275355
-2.1515543 0.92732078 0.032003686
-2.1244385 0.83473098 0.031179456
-2.1780949 0.77496332 0.031579796
-2.4140069 0.77134609 0.034617674
-2.2786293 0.64714688 0.032356925
-2.4674435 0.61472875 0.034735419
-2.1507263 0.46203199 0.030049082
-2.1442685 0.38809738 0.029766489
-2.2785616 0.33621606 0.031462047
-2.1803916 0.24952286 0.029978434
-2.0894167 0.17043079 0.028636117
-2.0456433 0.099974476 0.027976733
-2.0322998 0.03308405 0.027764786
-2.0411179 0.033227604 0.083697423
-2.0389547 0.099647596 0.083697423
-2.0878575 0.17030361 0.085886978
-2.0880539 0.2389558 0.086169504
-2.1694944 0.32012248 0.089912929
-2.1935229 0.39701205 0.091396175
-2.1339629 0.45843077 0.089489147
-2.1764162 0.54222345 0.09196122
-2.321672 0.65937132 0.098953664
-2.2218547 0.70994776 0.095634021
-2.1342709 0.75937086 0.092879422
-2.0795624 0.81709832 0.09160807
-2.0977423 0.90412784 0.093656361
-2.0765557 0.97632736 0.094080143
-2.0943079 1.0692512 0.09641096
-2.1126819 1.1668364 0.098953664
-2.3355553 1.3910111 0.11145531
-2.1483328 1.3761619 0.10460413
-10.73346 7.3790464 0.53403902
-2.3163962 1.7061137 0.11795334
-2.1946878 1.7294284 0.11456306
-2.188621 1.8432269 0.11731765
-2.13515 1.920401 0.11774144
-2.1386139 2.0533087 0.1215555
-12.585102 12.896199 0.73879755
-12.128445 13.265949 0.73696113
-11.712625 13.679868 0.73837376
-11.22775 14.012186 0.73618418
-9.7255993 12.981866 0.66505903
-9.249506 13.222383 0.66159815
-8.7841091 13.47027 0.65933794
-8.3070488 13.693083 0.656654
-7.8248291 13.899175 0.65397
-7.3380299 14.088447 0.65128607
-1.0185474 2.1213415 0.096481591
-0.92186558 2.0918908 0.093726993
-0.77998269 1.9385959 0.085675083
-0.71115291 1.9483925 0.085039407
-0.6280005 1.9115889 0.082496703
-0.54947042 1.8764594 0.080165885
-0.48165056 1.8683279 0.079106428
-0.41194504 1.8443464 0.077481918
-0.34207612 1.8059999 0.075362995
-0.27594629 1.7702197 0.073455967
-0.21755072 1.7731341 0.07324408
-0.15833442 1.7638335 0.072608396
-0.10142697 1.778372 0.073032185
-0.044497296 1.8220634 0.074727319
0.014497249 1.781203 0.073032185
0.072677292 1.7849512 0.07324408
0.13073826 1.7816397 0.07324408
0.19393662 1.8261188 0.075292371
0.25422367 1.8256636 0.07557489
0.32171771 1.8639538 0.07755255
0.37664855 1.8254999 0.07642246
0.42861727 1.7821242 0.075151108
0.51382601 1.8668842 0.079388954
0.58045167 1.8689122 0.080236517
0.67088115 1.9352947 0.083979949
0.72734958 1.896348 0.083273642
0.83150226 1.9732685 0.087794006
1.0739168 2.3332505 0.10531043
1.8098878 3.6173666 0.16584097
1.2209918 2.2538881 0.10509854
1.3876061 2.3735685 0.11272666
2.2402284 3.5607064 0.17248027
1.1581836 1.714401 0.08482752
3.8805707 5.3594718 0.27129266
1.4318852 1.8478378 0.095845915
1.7528226 2.1159918 0.11265603
2.7591207 3.1183345 0.1707145
1.2479988 1.3212048 0.074515432
4.628109 4.5905938 0.26726672
1.2934607 1.2020233 0.072396509
1.2578341 1.0948172 0.068370558
1.6119977 1.3133545 0.085251302
1.3305136 1.0137889 0.068582445
1.4470176 1.0298787 0.072820291
1.4367145 0.9536522 0.070701368
1.4098387 0.87106878 0.067946769
1.4957193 0.85815197 0.070701368
1.5852342 0.84214854 0.07359723
1.4880587 0.72944301 0.067946769
1.4638923 0.65939558 0.065827847
1.5291808 0.62976521 0.067805506
1.5327351 0.57361919 0.067099199
1.5146855 0.51130384 0.065545328
1.5173315 0.45775005 0.064980283
1.6113275 0.42941213 0.068370558
3.8110828 0.88385183 0.1604024
1.5530462 0.30727792 0.064909652
1.563925 0.25684321 0.064980283
1.5304619 0.20043322 0.063285142
1.896216 0.18578711 0.078117594
1.7362307 0.11320727 0.071337044
1.6976728 0.055287894 0.06964191
2.2705061 0 0.093091317
3.8117828 0 0.26073307
3.8149207 0.12424003 0.26108605
1.7439373 0.11370976 0.11954188
1.8608584 0.18232284 0.1278957
1.6322157 0.21375917 0.11259998
1.5480109 0.25422966 0.10730531
1.6485971 0.32618314 0.11495317
1.6471603 0.38200316 0.11565913
1.6621094 0.44294524 0.11765933
1.5694108 0.47346142 0.11212935
1.512424 0.51054049 0.10918786
1.5546116 0.58180636 0.11354126
1.5300788 0.630135 0.11318828
1.5197358 0.68454975 0.11401189
1.5738752 0.77151006 0.11989486
1.5524861 0.82475126 0.12024784
1.5785298 0.90566361 0.12448358
1.5613844 0.96470135 0.12554251
1.4646653 0.97220516 0.12024784
1.3831949 0.98445457 0.11612976
6.3881493 4.8674698 0.54935145
1.3108765 1.0680199 0.11565913
1.6828256 1.4647292 0.15260416
1.2348284 1.1475357 0.11530615
4.5064015 4.4698734 0.43416294
4.9809985 5.2731771 0.49616942
2.7025685 3.0544198 0.27897027
3.9601829 4.7806978 0.42463252
3.8087964 4.915225 0.42533848
1.3739771 1.8976053 0.160252
1.0871248 1.6092165 0.13283738
2.2881801 3.6369226 0.29391301
8.0449543 13.76129 1.0903491
1.312573 2.4229422 0.18849026
1.8325846 3.6627302 0.28014687
0.98672968 2.1438231 0.1614286
0.88436466 2.0987182 0.15578096
0.7139436 1.861396 0.13636717
0.70537359 2.034795 0.14730948
1.2214142 3.9326549 0.28167644
0.51579762 1.8740476 0.13295504
0.44125104 1.8346535 0.12907229
0.36982968 1.792451 0.12518953
0.31655633 1.8340501 0.1273074
0.25360689 1.8212341 0.12577783
0.1900139 1.7891824 0.12307166
0.13129836 1.7892728 0.12271868
0.072778724 1.7874423 0.12236571
0.014517603 1.7837039 0.12201273
-0.043548964 1.7832313 0.12201273
-0.10156938 1.7808689 0.12201273
-0.15948215 1.7766192 0.12201273
-0.21722591 1.7704867 0.12201273
-0.27553427 1.7675767 0.12236571
-0.33388257 1.7627418 0.12271868
-0.40233099 1.8013027 0.12624846
-0.45903188 1.7805898 0.12577783
-0.53414828 1.8241338 0.13001357
-0.59860879 1.8221228 0.13119015
-0.71657866 1.9632578 0.14295609
-5.8652134 14.577604 1.074818
-6.3435373 14.39471 1.0759946
-6.8340321 14.233324 1.079995
-7.3016462 14.018593 1.0811716
-7.7869868 13.831957 1.0857604
-8.2669888 13.627048 1.0902314
-9.4587679 14.504847 1.1844765
-9.1863966 13.132168 1.0962321
-9.6780758 12.918431 1.1041151
-10.164427 12.685163 1.1118807
-11.655982 13.613711 1.2258925
-12.127747 13.265185 1.2294223
-12.567513 12.878176 1.2308342
-4.250989 4.0814252 0.40310088
-2.1102204 1.8979789 0.1941379
-2.2195611 1.8692843 0.19849129
-2.3048997 1.8162761 0.20072682
-2.2173731 1.6331795 0.1883726
-2.2282512 1.5318797 0.18496047
-2.0842912 1.3351387 0.16931178
-2.1133444 1.2586666 0.16825284
-10.820175 5.9759941 0.84549999
-2.104969 1.0746942 0.16166392
-2.1621842 1.016587 0.16342881
-2.1530573 0.92796862 0.16036966
-2.0860634 0.81965268 0.15331011
-2.0970519 0.74612832 0.15225118
-2.1497202 0.68689865 0.15436904
-2.2718747 0.64522851 0.16154626
-2.1698287 0.54058224 0.15295713
-2.1745024 0.46713969 0.15213352
-2.2308707 0.40377176 0.155075
-2.1305196 0.31437153 0.14730948
-2.0900633 0.23918574 0.14389737
-11.659801 0.95107365 0.80020112
-4.441206 0.21705016 0.30414939
-2.0432301 0.033261988 0.13977928
-2.0403662 0.033215366 0.19570956
-2.0844879 0.10187288 0.20015375
-3.4861655 0.28436163 0.33545506
-2.0836735 0.23845448 0.20114136
-2.084995 0.30765408 0.20212896
-2.1296074 0.38544378 0.20756076
-2.1360686 0.45888314 0.20953596
-2.1200004 0.5281682 0.20953596
-2.4335303 0.69113988 0.24262059
-4.3584661 1.3926579 0.43882394
-2.0777988 0.73927808 0.21151116
-2.0670109 0.81216663 0.21299256
-2.1009481 0.90550947 0.21941197
-2.2085919 1.0384064 0.23406138
-7.2224779 3.6874437 0.77773559
-2.1588838 1.1923538 0.23653038
-2.0982854 1.2496978 0.23422597
-2.0333736 1.3025222 0.23159237
-2.0026281 1.3767681 0.23307377
-2.0742142 1.5277375 0.24706478
-2.0705688 1.6316217 0.2528258
-2.3419216 1.9723344 0.29364663
-2.0889018 1.8788043 0.2694504
-1.9486452 1.8709174 0.25908059
-4.0898805 4.1909804 0.56161565
-12.087823 13.221519 1.7180961
-11.720268 13.688796 1.7283013
-10.179205 12.703606 1.5612322
-9.6677017 12.904584 1.5464182
-9.2277832 13.191331 1.5439491
-8.7316475 13.38982 1.5330856
-9.0273705 14.880439 1.6692098
-7.7771101 13.814412 1.5204114
-7.3518772 14.115032 1.5263369
-6.8261423 14.216892 1.5125105
-6.3348551 14.375009 1.506585
-0.79052544 1.9647993 0.20311655
-0.69437653 1.9024292 0.19422814
-0.61280131 1.8653238 0.18830255
-0.5343979 1.8249862 0.18237694
-0.4751406 1.8430756 0.18254153
-0.40255153 1.80229 0.17710973
-0.33505058 1.7689083 0.17266554
-0.27570969 1.768702 0.17167793
-0.21234988 1.7307448 0.16723374
-0.15943156 1.7760557 0.17101952
-0.10134171 1.776877 0.17069033
-0.043451346 1.7792342 0.17069033
0.014485062 1.7797056 0.17069033
0.072615586 1.7834357 0.17118414
0.13100407 1.7852621 0.17167793
0.189588 1.785172 0.17217173
0.25469536 1.8290509 0.17710973
0.31497103 1.8248652 0.17760354
0.37420279 1.8136461 0.17760354
0.44868997 1.8655834 0.18402295
0.51327515 1.8648828 0.18550435
0.56606859 1.8226023 0.18303534
0.65825957 1.8988851 0.19274674
0.74184501 1.9341406 0.19867235
0.77241778 1.833053 0.19077155
0.91778308 1.9940259 0.21052356
1.1342547 2.2669997 0.24311438
1.211531 2.2364242 0.24393739
4.4045429 7.5341868 0.83699167
8.4787292 13.476422 1.5269954
2.4028387 3.5568016 0.4116649
3.8681047 5.3422546 0.63255829
1.3571602 1.7514058 0.21249877
3.9283144 4.7422261 0.59058523
4.2250261 4.7750883 0.61148947
4.6233478 4.894547 0.64572632
4.4914265 4.4550195 0.60671604
1.2471468 1.1589835 0.16328332
2.0738964 1.8051168 0.2636894
1.2839881 1.0461129 0.15883912
1.6559126 1.2617277 0.19965996
1.3912807 0.9902094 0.16377713
2.0304921 1.3477856 0.23373218
1.5403639 0.9517138 0.17365313
1.5526618 0.89082211 0.17167793
1.6429771 0.87282425 0.17842653
1.6258258 0.79697609 0.17365313
1.5664041 0.705571 0.16476473
1.5377578 0.63329744 0.15949753
1.551127 0.58050221 0.15883912
1.5643218 0.5280593 0.15834533
1.5757517 0.47537434 0.15785152
1.5854148 0.42250648 0.15735772
1.7287346 0.40092155 0.17019653
1.6550035 0.32745069 0.16180192
1.6698657 0.27424186 0.16229573
1.6387675 0.21461721 0.15850993
1.5201948 0.14894536 0.14649411
2.5278363 0.16482225 0.24294978
1.8560125 0.060444519 0.17809734
3.8564427 0 0.36985648
3.8603015 0 0.4769592
2.4216714 0.078866258 0.29936802
1.8680058 0.12179939 0.23129138
3.5864592 0.35139343 0.44524649
1.7543244 0.22975083 0.21860631
1.7813752 0.29255503 0.22304608
1.7608372 0.3483904 0.22177757
1.7035582 0.39508274 0.21606928
1.6451534 0.43842658 0.210361
1.6349257 0.49322602 0.21099526
1.6228688 0.54782271 0.21162951
1.6089852 0.60215545 0.21226376
1.5553064 0.64052457 0.20782398
1.5429944 0.69502634 0.20909248
1.6025225 0.78555292 0.22050907
2.0989535 1.1150596 0.29365972
2.0318625 1.165758 0.28943136
1.9695499 1.2168863 0.28604868
1.4527317 0.964284 0.21543503
1.9531163 1.390082 0.29619673
1.4114115 1.0754293 0.21924056
1.6303614 1.3283161 0.25983283
1.3913667 1.2110438 0.2279087
4.8683686 4.5242133 0.82114786
1.2598128 1.2496009 0.21924056
4.4896612 4.7530189 0.80782849
4.34618 4.9120154 0.81036556
4.0082498 4.8387237 0.77632719
5.130455 6.6208162 1.0348915
3.8565283 5.3262663 0.81247973
3.6226864 5.3624811 0.7995832
4.1378336 6.5768337 0.96004951
3.926749 6.716897 0.96131802
3.6718037 6.7779613 0.95243847
1.1392822 2.2770481 0.31459013
0.90430492 1.9647424 0.26723245
0.849841 2.016789 0.27040374
0.73962486 1.9283521 0.25518164
0.66077316 1.9061362 0.24926193
0.59279621 1.9086586 0.24693632
0.52490711 1.9071453 0.24439931
0.44934779 1.8683186 0.23742251
0.36893368 1.7881083 0.22558311
0.31548357 1.8278348 0.22917721
0.25464112 1.8286612 0.22812012
0.19444184 1.8308761 0.22748587
0.13361745 1.8208761 0.22558311
0.072607107 1.7832274 0.22050907
0.01452527 1.7846459 0.22050907
-0.043446634 1.7790412 0.21987481
-0.10133071 1.7766843 0.21987481
-0.15910742 1.7724446 0.21987481
-0.21734063 1.7714217 0.22050907
-0.27567521 1.7684809 0.22114332
-0.34169051 1.8039639 0.22685161
-0.40246576 1.801906 0.22812012
-0.46346679 1.7977929 0.22938862
-0.52414304 1.7899654 0.23044571
-0.61256951 1.8646183 0.24249655
-0.69347179 1.8999504 0.24989618
-5.8390231 14.512511 1.9327842
-0.88048548 1.9979914 0.26976949
-6.8049726 14.172802 1.9425094
-7.2911425 13.998426 1.9501204
-7.7714629 13.804381 1.9573087
-8.2734737 13.637738 1.9708394
-8.7027111 13.345448 1.9685138
-9.170742 13.109789 1.9767591
-9.6264572 12.849529 1.9837359
-10.113432 12.621521 1.9983238
-11.640677 13.595837 2.2114332
-12.083976 13.21731 2.2127018
-4.1230536 4.2249737 0.72939241
-2.0255125 1.9447187 0.34693709
-2.0419385 1.8365645 0.33932602
-2.2446048 1.8903757 0.36258203
-2.3331704 1.8385535 0.3670218
-2.1162279 1.5586822 0.32473817
-2.1164892 1.4550455 0.31733856
-2.0402558 1.3069308 0.29936802
-2.1067071 1.2547137 0.30296212
-10.9119 6.0266538 1.5401808
-2.2494123 1.1484399 0.31205308
-2.2437921 1.0549563 0.30634481
-2.2329426 0.96239918 0.30042511
-2.2646778 0.88983357 0.30063653
-2.1344533 0.75943565 0.27991754
-2.4074225 0.76924217 0.3122645
-2.0953953 0.59510714 0.26913524
-2.0987122 0.52286458 0.26723245
-2.1397135 0.45966616 0.27040374
-2.1282852 0.38520449 0.26723245
-2.1346173 0.31497619 0.26659819
-2.1318383 0.24396645 0.26511827
-2.084075 0.16999507 0.25835291
-4.5837708 0.22401758 0.56702334
-2.0804541 0.033867963 0.2570844
-2.0726566 0.033741027 0.31382319
-4.5989413 0.22475901 0.69706947
-2.0762639 0.16935793 0.31537166
-2.0798132 0.2380127 0.31692013
-2.1670916 0.31976795 0.33163059
-2.1303732 0.38558239 0.32775941
-2.0816934 0.44720191 0.32233977
-2.0858839 0.51966858 0.32543671
-2.0875418 0.59287667 0.32853365
-2.0817523 0.66518098 0.33085635
-2.0782709 0.73944604 0.33395329
-2.0578609 0.8085714 0.33472753
-2.1916981 0.94462276 0.36130959
-2.2724073 1.0684102 0.3801493
-2.1620309 1.1038272 0.36750346
-2.1712158 1.1991649 0.3755039
-2.2452741 1.3372413 0.395634
-2.0254316 1.2974348 0.36414847
-1.9961751 1.3723319 0.36672923
-2.0671184 1.5225114 0.38866588
-2.3230867 1.8306075 0.44776583
-2.3013873 1.938197 0.45550817
-2.0951238 1.8844006 0.42660341
-1.9515177 1.8736753 0.40957025
-4.1087909 4.2103586 0.89062816
-12.072042 13.204258 2.7085316
-11.601482 13.550059 2.7005312
-10.652215 13.293921 2.5789762
-9.6322832 12.857306 2.4321296
-9.1461411 13.074622 2.4156127
-8.6998911 13.341123 2.4112253
-8.2495384 13.598284 2.4078703
-7.7498622 13.766012 2.3916113
-7.2685399 13.955031 2.3820624
-6.7824192 14.125829 2.3722556
-0.91980731 2.0872202 0.34530875
-0.81193054 2.0180004 0.32930788
-0.708992 1.9424722 0.31304896
-0.61346596 1.867347 0.29756427
-0.5365504 1.8323371 0.28904769
-0.46300641 1.7960069 0.28078917
-0.40207213 1.8001437 0.2792407
-0.3337476 1.7620292 0.27149835
-0.27542967 1.7669057 0.27072412
-0.21714884 1.7698585 0.26994988
-0.15942556 1.7759888 0.26994988
-0.10124213 1.7751311 0.26917565
-0.043408655 1.777486 0.26917565
0.014470829 1.777957 0.26917565
0.072543032 1.7816538 0.26994988
0.13087101 1.7834489 0.27072412
0.19371307 1.8240139 0.27769223
0.25439206 1.8268727 0.2792407
0.32039002 1.8562615 0.28517649
0.37581822 1.8214756 0.2815634
0.44806227 1.8629736 0.29007998
0.51208287 1.8605509 0.29214463
1.1614293 3.7395179 0.5928058
0.67058033 1.9344269 0.30995202
0.70999151 1.851092 0.30014503
0.82282495 1.9526762 0.3207913
0.95437181 2.0735207 0.34556681
0.95270848 1.9041489 0.32233977
1.1522223 2.1269431 0.36621308
3.8733156 6.6254964 1.1618685
4.103261 6.521883 1.1665138
4.3563142 6.4484339 1.1781274
3.7540953 5.1847959 0.96908396
1.6038495 2.0697565 0.39640823
3.907316 4.7168775 0.92727524
4.087019 4.6191139 0.9337272
4.5383873 4.8046031 1.0005695
4.4478879 4.4118338 0.94843769
4.7040191 4.3714819 0.9721809
1.5031648 1.3083526 0.3016935
1.3744677 1.11983 0.26840141
5.1417675 3.9177856 0.97863287
1.8624643 1.3255626 0.34608299
5.3729997 3.5664515 0.97631013
5.4180779 3.3475595 0.96418047
2.0759993 1.191081 0.36234191
2.0248461 1.0756905 0.34711528
2.3603337 1.1570302 0.3979567
1.5838405 0.71342504 0.26298177
1.5589348 0.64201885 0.25523943
1.6125342 0.60348362 0.26065907
1.6636263 0.56158096 0.26582062
1.6777599 0.50614828 0.26530448
1.6884041 0.44995269 0.26453024
1.7021552 0.39475736 0.26453024
1.7141025 0.33914369 0.26453024
1.769652 0.29062974 0.27149835
1.8288827 0.23951517 0.2792407
1.8000813 0.17636804 0.27382106
3.6284485 0.23658535 0.55048096
3.5456285 0.11547002 0.53706092
3.80492 0 0.57603073
3.7623107 0 0.67517823
3.7128255 0.12091511 0.66665095
3.7069223 0.24170208 0.66665095
3.7443812 0.36686629 0.67517823
3.0927279 0.40503159 0.55975533
1.7466025 0.28684434 0.31764135
1.8162487 0.35935384 0.33225957
1.8035895 0.41828161 0.33225957
1.7447443 0.46496713 0.32403684
1.7335594 0.52298194 0.32495046
1.6770287 0.56610513 0.31764135
1.6672497 0.62396067 0.31946865
1.6507641 0.67983711 0.32038227
1.67418 0.75411755 0.32951865
1.6578895 0.81269366 0.33134592
1.9527732 1.037402 0.39682329
1.9268032 1.1054815 0.39865056
2.0139573 1.2443234 0.42484152
4.1257544 2.738564 0.8886649
2.1029358 1.4967123 0.46321431
2.0288069 1.5458558 0.45773247
3.9219389 3.1953495 0.90785128
4.8104582 4.187017 1.1444834
4.6455183 4.3171167 1.138088
4.4206061 4.3847733 1.1173788
4.4316936 4.6916509 1.158188
4.2935019 4.852479 1.1627562
4.055335 4.8955641 1.1408288
4.0643096 5.2449632 1.1907744
3.8357005 5.2975011 1.1737199
3.6887858 5.4603248 1.1825516
4.4724531 7.1086912 1.5071976
2.0341296 3.4794786 0.72329646
3.6431668 6.7250991 1.3725883
1.1435633 2.2856045 0.45864612
1.6539292 3.5934174 0.70989645
0.98847395 2.3457839 0.45681882
0.77546418 2.0217924 0.38860056
0.66922462 1.9305161 0.36667326
0.60452241 1.9464142 0.36575961
0.5138272 1.8668886 0.34748685
0.44921693 1.8677745 0.34474593
0.38544023 1.8681104 0.34230956
0.32298651 1.871305 0.34078684
0.25464949 1.8287214 0.33134592
0.19391505 1.8259159 0.32951865
0.13400686 1.8261828 0.32860503
0.073803909 1.8126209 0.32555956
0.014819941 1.8208505 0.32677773
-0.044455893 1.8203681 0.32677773
-0.10136548 1.7772939 0.31946865
-0.16310692 1.8169987 0.32738683
-0.21554987 1.7568262 0.31764135
-0.27497208 1.7639703 0.32038227
-0.33319041 1.7590874 0.32129592
-0.39249101 1.7572474 0.32312319
-0.46218994 1.7928399 0.33225957
-0.52030128 1.7768458 0.33225957
-0.59851801 1.8218465 0.34413686
-0.67670268 1.8540069 0.35418686
-0.77026367 1.9144399 0.3703278
-6.2638569 14.2139 2.7875085
-6.7489033 14.056026 2.7981677
-7.2106853 13.843954 2.801213
-7.6882825 13.65663 2.8124812
-8.1850605 13.492001 2.8319721
-8.6319332 13.23691 2.8359313
-9.0951796 13.001771 2.8475041
-9.580718 12.788476 2.867604
-10.007818 12.489717 2.8721724
-11.476335 13.403892 3.1666682
-11.951203 13.072085 3.1785455
-12.407104 12.713802 3.1879864
-1.9867889 1.9075396 0.49427798
-1.9304826 1.7363187 0.4659552
-1.9976585 1.6824008 0.46869612
-2.4539027 1.9336915 0.560669
-2.5497034 1.8779534 0.5682826
-2.0081522 1.3805659 0.43732789
-2.0748887 1.3291156 0.44220063
-2.1024714 1.2521908 0.43915516
-2.1747971 1.2011427 0.44585517
-2.0540407 1.0486926 0.41387787
-2.116266 0.9949978 0.41966423
-2.3844144 1.0276836 0.4659552
-2.1038649 0.82664728 0.40565512
-2.0353255 0.72416621 0.38768691
-2.0384204 0.65133512 0.38403237
-2.0879254 0.59298557 0.38951418
-2.0863602 0.51978719 0.38585964
-2.0474207 0.43983927 0.37580961
-2.0957203 0.37931046 0.3822051
-2.1220658 0.31312412 0.38494599
-2.2103765 0.2529543 0.39925966
-2.1176457 0.17273338 0.38129145
-2.0780759 0.10155952 0.37337327
-2.0734932 0.033754647 0.37215507
-2.0676191 0.033659019 0.42971313
-2.0721722 0.101271 0.43111628
-2.1418073 0.17470422 0.44655088
-2.1987169 0.25161999 0.45988074
-2.1309118 0.3144294 0.44760323
-2.0447993 0.37009412 0.43181786
-2.0465231 0.43964642 0.43497494
-2.0753546 0.51704532 0.44444615
-2.1110125 0.5995425 0.45602208
-2.0791233 0.66434091 0.45356658
-2.0245893 0.72034621 0.44655088
-2.0566308 0.80808806 0.45917916
-2.0757446 0.89464682 0.46970275
-2.1463492 1.0091419 0.49285465
-2.0747783 1.0592803 0.48408499
-2.0480659 1.1311489 0.48618972
-2.1958048 1.3077785 0.53109038
-2.0156145 1.2911462 0.49741489
-1.9892129 1.3675455 0.50162429
-1.9898583 1.4656062 0.51355106
-2.0206523 1.5922872 0.53459823
-1.9483856 1.6409038 0.52933639
-1.8788812 1.6899072 0.52512699
-1.8411452 1.7677053 0.53038877
-1.9193941 1.9668406 0.57107997
-11.894995 13.010605 3.6632607
-11.423482 13.342162 3.6499307
-11.057036 13.799136 3.6744857
-9.6151981 12.834501 3.3324692
-9.079134 12.978834 3.2914271
-8.6620102 13.283032 3.2952859
-8.1690264 13.465571 3.2728355
-7.6742272 13.631662 3.250736
-7.1983824 13.820334 3.2381077
-6.7176871 13.991011 3.2251287
-6.2348995 14.14819 3.212851
-0.77565199 1.9278324 0.43181786
-0.70380896 1.9282718 0.42655605
-0.59852207 1.8218588 0.39849317
-0.53605783 1.8306549 0.39638844
-0.4622803 1.7931905 0.3848125
-0.39262849 1.7578628 0.37428892
-0.33331776 1.7597598 0.37218419
-0.27508163 1.7646729 0.37113184
-0.21687973 1.7676651 0.37007946
-0.16254838 1.8107767 0.37779677
-0.10111915 1.7729747 0.36902711
-0.044468667 1.8208911 0.37849835
0.014824199 1.8213737 0.37849835
0.074101351 1.819926 0.37849835
0.1336706 1.8216004 0.3795507
0.19342698 1.8213202 0.38060305
0.25400466 1.8240907 0.38270777
0.32185701 1.8647609 0.39323136
0.38443035 1.8632159 0.39533609
0.44684732 1.857922 0.39709002
0.52186769 1.8961022 0.40866596
0.60133356 1.9361469 0.42129427
0.65574223 1.8916234 0.41603246
0.73752022 1.9228649 0.4279592
0.8692016 2.0627344 0.46514255
1.0459861 2.2725668 0.51986521
1.119403 2.2373161 0.51986521
1.2342494 2.2783611 0.53845686
2.0412908 3.4917281 0.84048378
1.8482234 2.9376385 0.7212165
2.013736 2.9808326 0.74752545
2.3750145 3.2801418 0.84153616
2.2437415 2.8955326 0.76120609
3.4879715 4.2106485 1.1361966
4.2988191 4.8584881 1.3480715
4.4442506 4.7049446 1.3449144
1.8876337 1.8723327 0.55248833
4.5443468 4.2230973 1.2891394
4.8156428 4.1915293 1.3266735
4.7807007 3.8950145 1.2814221
5.0351925 3.8365803 1.3154484
2.0670874 1.471198 0.52723169
4.2277579 2.8062711 1.0544634
2.0938067 1.2936584 0.5114463
1.8946763 1.087049 0.45391738
1.9156384 1.0176743 0.4507603
1.9704846 0.96592712 0.45602208
1.6422616 0.73974025 0.37428892
1.6561043 0.68203634 0.37218419
1.6726838 0.62599438 0.37113184
1.7257611 0.58255541 0.37849835
2.2221842 0.67039073 0.48233107
2.2836063 0.60857165 0.49110073
3.8233049 0.88668633 0.81557798
3.7540936 0.74276608 0.79523236
3.4831073 0.57203031 0.73349398
1.8512044 0.24243848 0.38796958
3.5700667 0.34978735 0.74542075
4.0360599 0.26316279 0.84048378
3.7033634 0.12060696 0.76997578
3.710391 0 0.77102816
7.4799199 0 1.7687775
7.5966988 0.2474007 1.7973446
3.9413238 0.25698572 0.93398434
3.645323 0.35716081 0.86613756
3.6367571 0.47627905 0.86732787
3.3080585 0.54328209 0.79273605
3.7017572 0.73241109 0.89232403
3.6775906 0.85289282 0.89272082
3.8667533 1.0304737 0.94628406
2.4673653 0.74435723 0.60943073
2.3671119 0.79905266 0.59078276
1.7599937 0.65866971 0.44437659
1.7810622 0.73349798 0.455486
1.7654223 0.7952168 0.45786658
1.8229718 0.89361668 0.4800854
1.9840649 1.0540257 0.53126806
1.9603482 1.1247276 0.53444219
2.0083437 1.2408551 0.5582481
4.0931444 2.7169185 1.1617273
4.3934999 3.1269641 1.275202
5.0714631 3.864217 1.5077063
4.7960081 3.907486 1.4628718
4.7649965 4.1474471 1.4938195
4.6311612 4.3037748 1.4950098
5.2581668 5.2155447 1.7513199
3.6845951 3.9007287 1.2688538
4.2216697 4.7712946 1.506516
4.0705509 4.9139333 1.5088966
2.2383904 2.8886271 0.86415374
2.3429353 3.2358372 0.94469702
2.2006769 3.2575517 0.92961991
1.7968355 2.8559604 0.797894
2.0763636 3.5517218 0.97286731
1.8309839 3.3799021 0.90898818
1.1193883 2.2372868 0.59157634
1.064212 2.3121655 0.60189223
0.83657891 1.9853162 0.50944602
0.75408918 1.9660636 0.49793983
0.68310028 1.9705434 0.49317864
0.58973336 1.8987969 0.4701663
0.51960135 1.8878677 0.46302453
0.44806778 1.8629965 0.45310539
0.39329338 1.9061723 0.46024716
0.31962466 1.8518271 0.44437659
0.25941044 1.8629113 0.44477335
0.19332008 1.8203136 0.43287039
0.132862 1.8105812 0.4292995
0.07406266 1.8189758 0.43048981
0.014775491 1.8153893 0.4292995
-0.044322558 1.8149083 0.4292995
-0.10337364 1.8125039 0.4292995
-0.16261519 1.8115211 0.43009305
-0.21618076 1.7619683 0.41977715
-0.2741929 1.7589716 0.42096746
-0.3322382 1.7540603 0.42215773
-0.39976284 1.7898046 0.43366393
-0.46074045 1.7872173 0.43644127
-0.52149868 1.7809348 0.43882188
-0.59594887 1.8140261 0.45151836
-0.67308819 1.8441041 0.46421483
-0.77095991 1.9161705 0.48841748
-0.83901161 1.9038792 0.49198836
-6.6755981 13.903352 3.6470621
-7.1323605 13.693577 3.6510298
-7.6253347 13.544815 3.6756291
-8.0726156 13.306651 3.6803904
-8.5372086 13.091651 3.6958642
-9.0203657 12.894823 3.721257
-9.5248423 12.713892 3.7565691
-9.9231348 12.384032 3.7526014
-10.366805 12.108006 3.7692657
-11.790208 12.895989 4.1319084
-2.0941086 2.145874 0.70901871
-1.8844721 1.8093041 0.6177628
-1.8937131 1.7032473 0.60228896
-1.9597 1.6504326 0.60585988
-1.9965681 1.5733088 0.60109866
-2.0669854 1.5224133 0.60705012
-2.0324855 1.3972945 0.58324426
-2.0599356 1.3195372 0.5784831
-2.1623402 1.2878475 0.59514719
-2.3103313 1.2759985 0.62411106
-2.1937318 1.1200122 0.58245075
-2.2183967 1.0430162 0.57967335
-2.5269816 1.0891302 0.65069425
-2.1363268 0.83940208 0.54277426
-2.0645082 0.73454928 0.51817483
-2.077734 0.66389698 0.51579422
-2.0837164 0.5917902 0.51222336
-2.1214118 0.52851987 0.51698452
-2.0341432 0.43698692 0.49198836
-2.0489402 0.37084362 0.49238512
-2.0483062 0.3022404 0.48960775
-2.1320729 0.24399328 0.5074622
-2.3044438 0.18797024 0.5467419
-2.0981822 0.10254215 0.49674952
-2.0651777 0.033619273 0.48841748
-2.0560663 0.033470951 0.54597998
-2.043901 0.099889323 0.5433253
-2.0927148 0.17069981 0.55748361
-2.047971 0.23436871 0.54730731
-2.0442028 0.30163497 0.54863465
-2.0382209 0.36890349 0.54996198
-2.0691226 0.44450134 0.56190807
-2.0778124 0.51765764 0.56854475
-2.0742888 0.58911276 0.57252681
-2.0651257 0.6598683 0.57562393
-2.3596902 0.83957475 0.66499829
-2.1372404 0.83976114 0.60969239
-2.0766375 0.89503163 0.60040098
-2.1851435 1.0273817 0.64110613
-2.0837576 1.0638647 0.62119597
-2.0217683 1.1166248 0.61323196
-10.586071 6.3048573 3.2714553
-2.1090055 1.3509699 0.66499829
-2.2081001 1.5180262 0.71145523
-14.564594 10.727377 4.8027654
-14.300634 11.268993 4.8341789
-2.205054 1.8570666 0.76543379
-1.9947611 1.7941321 0.71234012
-1.9220833 1.845415 0.70747322
-1.9052235 1.9523197 0.7242862
-2.0565543 2.2494349 0.80923611
-11.322323 13.224011 4.6222467
-9.8772202 12.32673 4.1939578
-9.4517727 12.616359 4.1855512
-8.9434528 12.784875 4.1426339
-8.5162001 13.059435 4.1395369
-8.0062256 13.197215 4.0983891
-7.5609741 13.430492 4.092195
-7.0920978 13.616277 4.0762668
-6.6191692 13.785827 4.060339
-0.89174324 2.0235374 0.58712757
-0.76942462 1.9123546 0.54730731
-0.6776312 1.8565508 0.52474248
-0.61008078 1.8570427 0.5189907
-0.53432602 1.8247406 0.50483239
-0.46092051 1.7879157 0.4902316
-0.40974531 1.8344977 0.49908054
-0.33803141 1.7846457 0.48226756
-0.28078941 1.8012888 0.48403734
-0.22200938 1.809474 0.48403734
-0.16284506 1.8140818 0.48359489
-0.10352134 1.8150936 0.48271
-0.044385888 1.8175015 0.48271
0.014796603 1.8179832 0.48271
0.075861648 1.8631588 0.49509853
0.13671046 1.8630261 0.49598342
0.19780676 1.8625604 0.49731076
0.25970653 1.8650378 0.49996543
0.32197577 1.865449 0.5026201
0.38454518 1.8637724 0.50527483
0.45747602 1.9021144 0.51943314
0.54523671 1.9810086 0.54553753
1.1560861 3.7223141 1.0348842
0.66860873 1.9287394 0.54199791
0.76863021 2.0039749 0.56987214
0.82180393 1.9502531 0.56190807
0.96636599 2.0995798 0.6136744
1.4800837 2.9581974 0.87825787
1.6343248 3.0168798 0.910999
2.0520852 3.5101924 1.0795714
1.9505026 3.1002049 0.97249913
2.0531781 3.0392168 0.97382647
2.4324751 3.3595009 1.1012514
2.2935259 2.959779 0.99417907
2.5821235 3.1171165 1.0747045
3.9852278 4.5040703 1.5967923
4.4535542 4.7147942 1.7220049
4.3846006 4.3490596 1.6397097
4.4896588 4.1722755 1.6273211
4.7424965 4.1278629 1.6693536
4.7709918 3.8871045 1.6339579
4.9798183 3.7943878 1.6622745
6.0116673 4.2786551 1.9591566
4.2567759 2.8255324 1.3565434
5.3515983 3.3064849 1.6702385
2.013443 1.1551901 0.61632907
2.1103139 1.1210948 0.63446939
2.130724 1.044476 0.63004494
1.85212 0.83426887 0.53934324
1.7966288 0.73990881 0.51589352
3.157269 1.1815937 0.89507085
3.9282315 1.326031 1.1008089
3.8002014 1.1464485 1.0539094
3.6567717 0.97451448 1.0047978
3.7547333 0.87078351 1.0233806
5.1853046 1.0259383 1.4034429
3.3857639 0.55604357 0.910999
3.317802 0.43450785 0.88843417
3.5938821 0.3521207 0.95878327
3.7763774 0.24623075 1.0047978
3.8623362 0.1257842 1.0260353
3.6527507 0 0.96984446
3.5918229 0 1.0595008
3.7188394 0.12111096 1.0975491
3.7904856 0.24715064 1.1204758
3.5845809 0.3512094 1.0624275
3.6942265 0.48380539 1.0990125
3.2914085 0.54054767 0.98389184
3.5575852 0.70388591 1.0697446
3.5714514 0.82827747 1.0814518
4.0363579 1.0756726 1.2321818
6.0922189 1.8379067 1.8770529
5.4463062 1.838479 1.6955914
3.3794501 1.2647439 1.0643787
3.1835828 1.3111005 1.0155988
2.1440783 0.96577847 0.69365108
2.1560528 1.0568923 0.70828503
2.2037523 1.1707335 0.73608965
2.1429617 1.2295001 0.72877264
5.1996498 3.2126036 1.8029073
4.0851583 2.7116177 1.4463259
4.3140411 3.0704114 1.5619344
4.986567 3.79953 1.8492483
4.6999955 3.8292611 1.7882733
4.6689115 4.0638146 1.8258339
4.4033341 4.0920529 1.7731516
4.2091017 4.174983 1.7487617
4.0187416 4.2544756 1.7263229
3.9614134 4.4771552 1.7633955
2.568763 3.1009879 1.1877921
2.3570704 3.0417829 1.1351097
2.439142 3.3687088 1.2268161
2.1134312 3.128406 1.1136465
1.9814221 3.1493495 1.0975491
2.0790019 3.5562348 1.2151089
1.7841274 3.2934074 1.1048661
1.5294731 3.0569105 1.0082818
1.0841436 2.3554702 0.76486981
1.0268064 2.4367521 0.77999157
0.75033259 1.9562694 0.61804211
0.6651352 1.9187193 0.59901792
0.60085768 1.9346147 0.5975545
0.53361887 1.9387976 0.59316432
0.45592105 1.8956491 0.57511574
0.38361779 1.8592777 0.55999398
0.32092687 1.8593719 0.55657935
0.25362077 1.8213339 0.54243314
0.19787017 1.8631575 0.55267698
0.13675719 1.8636631 0.55121356
0.075821385 1.86217 0.54975015
0.014764526 1.814042 0.5351162
-0.045339376 1.8565446 0.54779899
-0.10329692 1.8111588 0.5351162
-0.16115974 1.7953073 0.53170156
-0.22071922 1.7989587 0.53462839
-0.28017649 1.797357 0.53657955
-0.34714848 1.8327794 0.55023795
-0.39869022 1.7850024 0.53950638
-0.47887245 1.8575516 0.56584758
-0.5302515 1.8108262 0.55657935
-0.60594475 1.844453 0.57267672
-0.67019594 1.83618 0.57657915
-0.7468912 1.8563492 0.59023756
-0.86627078 1.9657354 0.63365167
-6.5644002 13.671759 4.4736104
-7.0334339 13.503646 4.4911709
-7.4992619 13.320873 4.5092196
-7.9631867 13.126271 4.5287318
-8.4196444 12.911369 4.5467801
-8.8733587 12.684673 4.5662923
-9.2944279 12.406333 4.5726337
-9.7615728 12.182403 4.6048284
-11.23706 13.124428 5.0965304
-11.687312 12.783444 5.1092134
-2.0188975 2.0688038 0.85267371
-2.0815878 1.9985573 0.85121036
-12.944536 11.642601 5.1355543
-13.360909 11.252377 5.1526275
-2.257457 1.7788908 0.84779572
-2.1277516 1.5671699 0.77950376
-2.1340277 1.4671029 0.7638942
-2.1012783 1.3460201 0.73608965
-2.0629921 1.2286779 0.70828503
-2.0193796 1.1153055 0.68048048
-2.0546124 1.0489845 0.68048048
-2.1101158 0.9921062 0.68779743
-2.1458464 0.92486066 0.68926084
-2.0916991 0.82186711 0.6629197
-2.1890111 0.77884728 0.68535846
-2.252583 0.71976644 0.69755346
-2.0680161 0.58733124 0.63413948
-2.0330844 0.50651431 0.61804211
-2.0290923 0.43590182 0.61218852
-2.0763779 0.37580964 0.62243229
-2.0384307 0.30078325 0.60779834
-2.042212 0.23370966 0.60633492
-2.0437925 0.16670927 0.60487151
-2.0382254 0.099611953 0.60194474
-2.0470016 0.033323385 0.6038959
-2.0805705 0.033869855 0.67610788
-2.0308692 0.099252447 0.66065705
-2.038003 0.16623703 0.66438651
-2.0347703 0.23285803 0.66545212
-2.0731561 0.30590719 0.68090296
-2.0298297 0.36738473 0.6702472
-2.0216055 0.43429345 0.67184556
-2.0254915 0.50462264 0.67823905
-2.0553141 0.58372378 0.69422269
-2.2866995 0.73066765 0.78000152
-2.2617049 0.80471164 0.78000152
-2.0847487 0.81913614 0.72778833
-2.0208414 0.87098342 0.7150014
-2.1828458 1.0263015 0.78373104
-2.0767229 1.0602731 0.75762445
-2.0066619 1.1082815 0.74483752
-1.9779773 1.1780447 0.74803424
-2.0172875 1.2922179 0.77840316
-2.0836077 1.43244 0.82155895
-2.0160739 1.484915 0.81356716
-2.0078859 1.5822273 0.83061635
-1.9791512 1.6668142 0.84073937
-12.81956 11.530195 5.6022649
-12.455207 11.958392 5.6102567
-12.014701 12.311699 5.589478
-11.598742 12.686567 5.5852156
-11.154058 13.027486 5.5724287
-9.72542 12.137284 5.0534935
-9.2583485 12.358173 5.0172639
-8.8135929 12.599236 4.9959521
-8.3800125 12.850595 4.9847636
-7.929224 13.070288 4.9671817
-7.4706306 13.270016 4.9480014
-7.0059538 13.450887 4.9277554
-6.5374503 13.615629 4.9075093
-0.8874017 2.0136857 0.7150014
-0.78466308 1.9502288 0.68303412
-0.68534815 1.8776935 0.64946848
-0.6033954 1.8366928 0.62815696
-0.54329199 1.8553599 0.62815696
-0.46992332 1.8228377 0.61164051
-0.40569493 1.8163635 0.60471427
-0.3472735 1.8334396 0.60631263
-0.28690663 1.8405313 0.60524708
-0.22584757 1.840757 0.60258311
-0.16214681 1.8063033 0.58926344
-0.10326642 1.810624 0.58926344
-0.044036388 1.8031902 0.58606672
0.015120495 1.8577782 0.60364872
0.075515732 1.8546633 0.60311592
0.13560429 1.8479518 0.60205036
0.19308499 1.8181 0.59405851
0.25894573 1.8595742 0.61004215
0.31822136 1.8436968 0.60791099
0.39065546 1.8933871 0.62815696
0.45437813 1.8892339 0.63135368
0.53086084 1.9287767 0.65000129
0.59433317 1.9136074 0.65106684
0.67725134 1.9536709 0.67184556
0.74753034 1.9489634 0.67823905
0.85068703 2.0187967 0.71180469
1.1415062 2.480099 0.88709188
2.60834 5.2132082 1.8940611
1.9932489 3.6794353 1.3596748
1.9654772 3.3620453 1.2653713
3.0911562 4.9132042 1.8860693
2.2874599 3.3860121 1.3277075
4.3313246 5.9820094 2.3996768
4.5207286 5.8339682 2.3980784
2.5282788 3.0521157 1.2877485
3.8541293 4.3559041 1.8897988
4.0501695 4.2877469 1.9164381
3.9512575 3.919229 1.8082823
4.2316828 3.9325361 1.8770119
4.6777887 4.0715413 2.0150039
4.6680002 3.8031933 1.9563973
4.8858361 3.7227778 1.9958235
4.387219 3.1224942 1.7496755
4.1709433 2.768559 1.6266016
5.2799678 3.262228 2.0166023
5.2681489 3.0225408 1.9734465
2.3531528 1.2501019 0.86578035
2.5339434 1.2421334 0.91692799
2.3816614 1.0727955 0.84873116
6.8229337 2.8099008 2.3975456
3.2895312 1.2310922 1.1412318
4.0378652 1.3630395 1.3847158
5.4709969 1.6504958 1.8567659
6.1508489 1.6391758 2.0682826
3.8847749 0.90094227 1.2957402
3.5871108 0.7097277 1.188117
3.5241714 0.57877427 1.1604121
3.9638689 0.51911843 1.298937
3.5674171 0.34952775 1.1646744
3.6227195 0.23621181 1.1795925
3.7497661 0.12211815 1.2190188
3.6960025 0 1.200904
3.5659702 0 1.2673461
3.6046739 0.11739295 1.2817806
3.636229 0.23709266 1.2950603
3.553827 0.34819621 1.2690783
3.7435751 0.4902682 1.341828
3.9404504 0.64713973 1.4191967
3.5284371 0.69811887 1.2783163
3.5734777 0.82874739 1.303721
6.2980385 1.6784011 2.3164432
7.0955133 2.1405816 2.6340013
4.0236111 1.3582277 1.5092678
3.4325628 1.2846211 1.3025662
3.235707 1.332567 1.2436736
4.5311518 2.0410118 1.7662013
4.4666929 2.1895628 1.7679334
5.0099783 2.6615286 2.0162063
5.2997484 3.0406706 2.1715212
5.2408118 3.2380354 2.1894197
4.0728135 2.703423 1.7373323
4.2182574 3.0022399 1.8401058
4.9375672 3.7621944 2.2061639
4.6311269 3.7731514 2.1230214
4.6382036 4.0370865 2.1853781
4.2270584 3.9282389 2.050849
4.0392847 4.0065427 2.02198
4.8728185 5.1586518 2.5219898
3.8507817 4.3521204 2.0652833
2.5701878 3.1027079 1.4318991
4.4809098 5.7825828 2.599936
4.2950783 5.9319501 2.602823
8.4695415 12.537037 5.3771272
8.0042048 12.722195 5.341907
2.9025018 4.9648719 2.0439203
2.7231088 5.0267191 2.0317955
2.5994828 5.1955056 2.0647061
2.4534466 5.330493 2.0854917
0.8447122 2.0046177 0.77310997
0.75807071 1.9764441 0.75232434
0.66300637 1.9125782 0.71941382
0.5844999 1.8819466 0.7003603
0.53069347 1.9281688 0.71075308
0.96151501 3.9978306 1.4613453
0.38146183 1.8488283 0.67091399
0.31969947 1.8522606 0.6680271
0.26349688 1.8922573 0.67899728
0.19627479 1.8481354 0.66052115
0.13292345 1.8114187 0.6455093
0.073693767 1.8099158 0.64377719
0.015086434 1.8535932 0.65878904
-0.044224072 1.8108754 0.64377719
-0.10286642 1.8036106 0.64204502
-0.16151874 1.7993066 0.64204502
-0.22039558 1.7963208 0.6431998
-0.27874833 1.7881953 0.6431998
-0.34496886 1.8212721 0.65878904
-0.40548432 1.8154205 0.66109854
-0.47733846 1.8516011 0.67957467
-0.53963715 1.8428785 0.68246156
-0.6246888 1.9015086 0.71133047
-0.68068099 1.8649065 0.70555669
-0.77740633 1.9321927 0.74019945
-0.86347151 1.9593834 0.76098508
-6.4594107 13.453095 5.3038001
-6.9201479 13.286145 5.3240085
-7.3776312 13.104821 5.3447943
-7.8272429 12.902185 5.3632703
-8.2803278 12.697729 5.3875203
-8.7264948 12.474728 5.4106154
-9.1425295 12.203576 5.4192758
-9.5948429 11.974324 5.4533415
-10.997017 12.844068 6.009357
-11.470647 12.546458 6.0416899
-11.90699 12.201325 6.0590115
-12.308376 11.817419 6.064208
-12.726368 11.446376 6.0832615
-2.0018539 1.6859342 0.93015701
-2.013561 1.5866992 0.91110349
-2.0837617 1.5347697 0.91976416
-2.0201595 1.3888206 0.8712644
-2.019151 1.2934116 0.85221088
-15.24199 9.0778322 6.3049746
-1.9966364 1.1027443 0.81063962
-2.0604105 1.0519449 0.82218719
-2.1655989 1.0181924 0.85047877
-2.055861 0.88607699 0.79562777
-2.0730288 0.81453115 0.7915861
-2.2499716 0.80053699 0.8487466
-2.3166194 0.74022788 0.86433583
-2.4238763 0.68839806 0.89551425
-2.0540514 0.51173794 0.75232434
-2.0648549 0.44358456 0.75059223
-2.0686076 0.37440324 0.74712795
-2.0571973 0.30355239 0.73904467
-2.0207944 0.23125863 0.72287804
-2.0337279 0.16588832 0.7251876
-2.0364273 0.099524066 0.72461021
-2.0337145 0.033107083 0.72287804
-2.066277 0.03363717 0.79867697
-2.0255361 0.098991796 0.78376007
-2.0212407 0.16486977 0.78376007
-2.02439 0.2316701 0.7874893
-2.0491872 0.3023704 0.80054158
-2.0540843 0.37177464 0.80675697
-2.0487564 0.44012621 0.80986464
-2.0785997 0.5178538 0.82788926
-2.3685009 0.67267108 0.95157546
-2.2702873 0.72542346 0.92112005
-2.512141 0.89381647 1.0305108
-2.1329589 0.8380788 0.88569236
-2.039567 0.87905419 0.85834467
-2.0171502 0.94839686 0.86145234
-2.2086551 1.1276312 0.95841235
-2.0947614 1.1569389 0.92484927
-2.0311224 1.2096969 0.9136616
-2.0028589 1.2829753 0.91925544
-1.9719645 1.3556875 0.92484927
-2.0044856 1.4763799 0.96214157
-1.9882101 1.5667226 0.97830158
-1.9509214 1.6430395 0.98576003
-12.96277 11.659 6.7380991
-12.21562 11.728363 6.5448003
-11.789205 12.080628 6.5236683
-11.382142 12.449653 6.5193172
-10.946823 12.785443 6.505022
-9.5443783 11.911345 5.8990221
-9.0850782 12.126889 5.8561358
-8.6495867 12.364786 5.8318958
-8.2258444 12.61418 5.8200865
-7.7817039 12.82712 5.7983327
-7.3324494 13.024566 5.7765789
-6.8749032 13.19928 5.7517171
-6.4172659 13.365319 5.7299633
-5.955482 13.514137 5.7075882
-5.5088449 13.691874 5.7038589
-0.71021199 1.9458146 0.80054158
-0.64047688 1.9495662 0.79308313
-0.57261235 1.9554899 0.7874893
-0.49380425 1.9154721 0.76449233
-0.41436759 1.8551925 0.73465848
-0.35226578 1.8597964 0.73155081
-0.28485554 1.8273735 0.7147693
-0.22483261 1.8324847 0.71352619
-0.16506681 1.8388319 0.71352619
-0.1026536 1.7998792 0.69674468
-0.044013835 1.8022668 0.69674468
0.015012884 1.8445566 0.71290463
0.075109959 1.8446974 0.71352619
0.13464357 1.8348595 0.71104002
0.19582474 1.8438976 0.71663392
0.26217142 1.8827389 0.73465848
0.3178443 1.8415122 0.72222775
3.0137818 14.606874 5.7641482
0.45165485 1.877911 0.74646771
0.5381465 1.9552479 0.78376007
0.59005576 1.8998352 0.76884311
0.67370528 1.9434415 0.79494774
0.74006212 1.9294921 0.79867697
4.3021359 10.209557 4.2817788
1.098704 2.3871045 1.0155939
2.6006227 5.1977839 2.2462401
2.760004 5.0948257 2.2394032
2.885417 4.9356475 2.2095695
3.1259007 4.9684281 2.2686155
3.2355499 4.7894225 2.2338095
3.3623776 4.6437931 2.2157848
3.5816891 4.6221447 2.2599139
3.6502185 4.4065113 2.2114339
3.756547 4.2456169 2.1909232
3.9225664 4.1526589 2.2077048
3.9700208 3.9378402 2.1610894
4.2138977 3.9160085 2.2232432
4.3779473 3.8105597 2.2431324
4.5969095 3.7452731 2.2916124
4.6856804 3.5702684 2.2766955
6.2341208 4.4369807 2.9572802
6.3631802 4.2237067 2.9516864
5.2235518 3.2273715 2.373034
5.1821561 2.9732034 2.3090155
5.0532093 2.684495 2.2114339
4.547297 2.2290747 1.9572247
4.463479 2.0105293 1.8919632
5.2254658 2.1520128 2.1840863
3.4115155 1.2767442 1.4077847
5.4077444 1.8254617 2.2058401
5.4689159 1.649868 2.2077048
6.3961625 1.7045509 2.5582526
7.0999746 1.6465992 2.8168125
3.538619 0.70013338 1.3941108
4.0292706 0.66172665 1.5780863
4.0008368 0.52395988 1.5594401
3.6156349 0.35425201 1.4040555
3.5851297 0.23376083 1.388517
3.6695995 0.11950737 1.4189724
3.5895262 0 1.3872739
3.5264342 0 1.474825
3.6056449 0.11742457 1.508752
3.5951505 0.23441422 1.5067562
3.5856154 0.35131076 1.5067562
3.7788892 0.49489301 1.593902
4.5204678 0.74239594 1.9158754
3.5951264 0.71131366 1.5327004
3.842782 0.8912034 1.6497817
6.9395142 1.8493518 3.0035341
6.915235 2.086195 3.0208302
5.3531604 1.8070363 2.3629131
5.4792109 2.05057 2.4467328
3.3784027 1.3913335 1.5280437
4.5017123 2.0277512 2.064888
4.364768 2.1395993 2.0329568
5.0021935 2.657393 2.3689003
5.2055383 2.9866185 2.5099299
5.0825624 3.1402612 2.498621
5.0439177 3.348016 2.5318828
4.7689829 3.3942049 2.4480631
4.9178743 3.7471895 2.5857666
4.5022726 3.668169 2.4287713
4.3085012 3.750114 2.3888574
4.1212339 3.8298953 2.3529346
3.9379227 3.9060025 2.3196728
3.8633101 4.0899267 2.3529346
3.7249753 4.2099352 2.3509388
3.5382786 4.2713785 2.3196728
3.4460869 4.4471512 2.3529346
3.3274934 4.5956144 2.3728917
3.2001863 4.7370753 2.3908529
3.0900414 4.9114323 2.4267757
2.8988359 4.9586015 2.4021618
2.73893 5.0559244 2.4048228
2.6326959 5.2618876 2.4607027
4.5316663 9.845747 4.532908
4.2124958 9.996829 4.5368996
0.76615119 1.9975116 0.89474046
0.66946781 1.9312176 0.85482639
0.60342193 1.9428709 0.85083497
0.52593327 1.9108735 0.82888222
0.45118186 1.8759444 0.80692953
0.3860245 1.8709422 0.79894668
2.9792137 17.260836 7.325563
0.54033047 3.8802903 1.6384727
0.20426737 1.9233938 0.80892521
0.13491809 1.8386005 0.77100682
0.07500086 1.8420179 0.77100682
0.014978255 1.8403019 0.76967639
-0.044697795 1.8302734 0.76568496
-0.10470166 1.8357888 0.76901114
-0.1644004 1.8314081 0.76901114
-0.22392492 1.8250866 0.76901114
-0.28394711 1.8215457 0.77100682
-0.3507838 1.8519722 0.78830296
-0.42058742 1.8830397 0.80692953
-0.48165676 1.8683519 0.80692953
-0.55830783 1.9066393 0.83087796
-0.63645536 1.9373251 0.85283071
-0.71717489 1.9648912 0.8747834
-5.4468536 13.537799 6.1028619
-5.8903904 13.366432 6.108849
-6.3285379 13.180525 6.1148357
-6.7806582 13.018336 6.1387844
-7.2281179 12.839243 6.1620674
-8.2081671 13.530089 6.6184187
-8.113348 12.441669 6.2119603
-8.5495787 12.221823 6.2379045
-8.9743366 11.979071 6.2598572
-9.4241467 11.761296 6.3030972
-10.854074 12.677117 6.979641
-11.212661 12.264276 6.9497051
-11.668129 11.95656 6.9869585
-12.087845 11.605683 7.0082459
-12.770236 11.485832 7.1832027
-12.839252 10.813043 7.0202203
-2.0227003 1.5939012 1.0770147
-2.032526 1.4970325 1.0557272
-2.090663 1.4372903 1.0610491
-2.0894594 1.3384492 1.0377659
-2.0868199 1.2428693 1.0158131
-2.151232 1.1881278 1.0277873
-2.7129354 1.3850921 1.2739241
-2.1174581 0.99555832 0.97856003
-2.0289609 0.87448305 0.92401075
-2.082998 0.81844831 0.93598503
-9.3153172 3.3143775 4.135098
-9.4303837 3.0132844 4.14042
-2.5002165 0.71007919 1.0869932
-2.0697722 0.51565462 0.89207953
-2.0030367 0.43030444 0.85682207
-2.048851 0.37082747 0.87079203
-2.0488205 0.30231631 0.86613536
-2.0117459 0.23022312 0.8468436
-2.0039053 0.16345574 0.84085649
-2.0129302 0.098375715 0.84285218
-2.0532358 0.033424869 0.85881782
-2.0321577 0.033081736 0.91600537
-2.031574 0.099286877 0.91671383
-1.9990658 0.16306098 0.90396202
-2.0379875 0.23322621 0.9245066
-2.0355363 0.30035615 0.92734033
-2.0324149 0.36785266 0.93088251
-1.9794075 0.42522827 0.91246319
-2.0102751 0.50083172 0.93371624
-2.0866563 0.5926252 0.97763914
-2.1965253 0.70185429 1.0392729
-9.1787701 3.2657945 4.3908749
-2.1008523 0.82546353 1.0173115
-2.0468874 0.88220936 1.0045596
-16.559177 7.785574 8.2468824
-2.1041465 1.0742742 1.0647765
-2.1093431 1.1649925 1.0860295
-2.0811093 1.2394681 1.0916971
-14.498677 9.287446 7.7601876
-14.237913 9.78829 7.7871084
-2.2388928 1.6490296 1.2532201
-2.1321774 1.6801698 1.2234658
-12.767141 10.752313 7.5228624
-12.686205 11.410253 7.690053
-12.01328 11.534093 7.5058599
-11.566711 11.852635 7.4640622
-11.120692 12.163682 7.4279323
-10.71172 12.510853 7.4229732
-9.3886557 11.717004 6.766963
-8.914649 11.899399 6.7010789
-8.4640388 12.099541 6.6550307
-8.0279408 12.310699 6.6238594
-7.5952582 12.519789 6.5997725
-7.1945148 12.779553 6.6096907
-6.7282615 12.917738 6.5643511
-6.2797356 13.078884 6.5388474
-5.8297777 13.228889 6.5154691
-5.3884659 13.392679 6.5062594
-4.948606 13.558022 6.5048423
-0.67408234 2.0518589 0.97338855
-0.57027429 1.9475054 0.91458851
-0.4912782 1.9056735 0.88695955
-0.42076552 1.883837 0.86995715
-2.6865771 14.183855 6.5062594
-0.29584995 1.8979036 0.86570656
-0.22377183 1.8238387 0.82815951
-0.16386639 1.8254592 0.82603425
-0.10427206 1.8282565 0.82532579
-0.044477515 1.8212533 0.8210752
0.014942285 1.8358824 0.82745111
0.074755579 1.8359938 0.82815951
0.13459189 1.8341553 0.82886797
1.5429828 14.52882 6.5848956
0.26101643 1.8744445 0.85295475
0.3226926 1.8696021 0.85508001
0.38337645 1.8581079 0.85508001
0.45688644 1.899663 0.88058364
0.53224254 1.9337969 0.90396202
0.59910089 1.9289582 0.91033792
0.66620386 1.921802 0.91671383
0.75880188 1.9783505 0.95496923
0.92106575 2.1858151 1.0690272
4.4683495 9.7081814 4.8166437
4.7819791 9.5575943 4.8166437
2.7515428 5.0792069 2.6034956
2.9074779 4.9733839 2.5964112
3.0828862 4.9000592 2.609163
3.1694741 4.6916137 2.5517797
3.3177392 4.5821428 2.5496545
3.5084543 4.5276356 2.5815341
3.6339133 4.3868279 2.5673654
3.7476957 4.2356133 2.5489461
3.9364667 4.1673746 2.5836594
4.0175757 3.9850094 2.5503631
4.1106143 3.8200264 2.52911
4.2363334 3.6872993 2.5312352
4.4784074 3.648725 2.6034956
4.4747715 3.4095659 2.535486
4.7537045 3.3833311 2.6297076
4.8704791 3.2328923 2.6346667
5.196444 3.2106228 2.7529752
5.0173335 2.878638 2.6070378
5.8413138 3.1031718 2.981091
4.5122871 2.2119131 2.264864
4.3927126 1.9786533 2.1713507
6.4082112 2.6391048 3.1234863
5.4263515 2.0307875 2.6112883
5.3838372 1.8173915 2.5609896
6.397243 1.9299266 3.0115535
5.5863652 1.4887432 2.6056209
7.0436568 1.6335381 3.2587972
