# .PCD v0.7 - Point Cloud Data file format
VERSION 0.7
FIELDS x y z
SIZE 4 4 4
TYPE F F F
COUNT 1 1 1
WIDTH 82
HEIGHT 1
VIEWPOINT 0 0 0 1 0 0 0
POINTS 82
DATA ascii
0.78121603 5.610168 0.077374034
0.34867701 4.7516069 0.065081224
0.046310786 5.6899705 0.077727273
-0.2830689 4.9631948 0.067907155
-0.70869106 5.776144 0.079493478
-1.0592709 5.5924482 0.077750824
-1.4441372 5.6018243 0.079022489
-1.8378427 5.5942631 0.080435462
-2.2069466 5.4852214 0.08076515
-0.83469838 1.7384368 0.026342401
-0.90121663 1.6008232 0.02509428
-1.0524319 1.6138849 0.026318852
-4.1228223 5.503201 0.093929283
-5.3511972 6.2499804 0.11239205
-9.0035019 9.2260647 0.17609328
-9.2617044 8.3301811 0.17015882
-9.6622124 7.6138873 0.16803937
-9.5646152 6.5754886 0.15854894
-9.8551683 5.8695455 0.15668854
-10.283745 5.2503767 0.15772471
-6.7310877 2.9011016 0.10012279
-10.959667 3.899435 0.15890218
-11.629633 3.3028982 0.16514279
-11.674938 2.5080805 0.16311753
-6.8145366 1.0055276 0.094094135
-6.0596523 0.49427733 0.083049446
-9.5461521 0.15540296 1.4453932
-6.7973003 0.55444628 1.032468
-12.701687 1.8742136 1.9437424
-6.1127448 1.3131768 0.9465279
-6.4111967 1.8208253 1.0089829
-11.951824 4.2524433 1.9205153
-11.770358 5.073029 1.9403874
-5.5046768 2.8104186 0.93568861
-10.450996 6.2244091 1.8415434
-9.5518589 6.5667191 1.754829
-9.1003408 7.1711283 1.7540549
-8.651226 7.7811036 1.7615391
-8.3849812 8.5922546 1.8175421
-4.4388089 5.1843481 1.0332422
-2.933022 3.9150391 0.74058145
-3.2754722 5.0228763 0.90781617
-2.8781619 5.1124535 0.88820219
-2.489248 5.1843882 0.87065291
-2.1415622 5.3227129 0.86858827
-1.7992164 5.4766874 0.8727175
-1.4237447 5.5227213 0.86342669
-1.0515587 5.5517316 0.85542625
-0.69765812 5.6862202 0.86729789
-0.32135397 5.6344671 0.85439396
0.040437851 4.9683928 0.75219494
0.41389674 5.6403909 0.85620052
0.76425767 5.4883847 0.83890927
1.1765764 5.7025042 0.8814922
1.5044018 5.4659438 0.85826516
1.8819801 5.4289584 0.86987865
2.2404935 5.3169975 0.87349176
2.5992389 5.1950183 0.87942755
3.065959 5.2444735 0.91968775
3.3004925 4.8855538 0.89258957
3.7293677 4.8127232 0.92175239
2.2904477 2.5886443 0.52327955
4.1775045 4.1436424 0.89078301
4.8883071 4.254776 0.98111039
2.7127163 2.0669625 0.51631141
2.8641794 1.9011648 0.52044064
3.0823562 1.7684668 0.53798997
5.7823586 2.8344991 0.97491652
5.8741417 2.4191582 0.9617545
6.1160069 2.0645461 0.97723919
5.9804096 1.5937544 0.936979
6.0697622 1.2009326 0.93672091
8.1414013 1.0662189 1.2430599
6.5434551 0.42665222 0.99272394
13.450483 0 3.967567
9.8163185 0.64005238 2.9017248
11.693629 1.5314277 3.4787917
6.3812666 1.2625653 1.9188086
6.3095651 1.681473 1.9261255
6.001905 2.0260293 1.8685652
5.8803005 2.4216945 1.8758821
5.6657271 2.7773266 1.8612483
