# .PCD v0.7 - Point Cloud Data file format
VERSION 0.7
FIELDS x y z
SIZE 4 4 4
TYPE F F F
COUNT 1 1 1
WIDTH 216
HEIGHT 1
VIEWPOINT 0 0 0 1 0 0 0
POINTS 216
DATA ascii
2.4105861 4.123426 1.1294652
3.2732155 6.5420747 1.7298347
4.6630425 11.066038 2.8396227
5.6767631 16.37579 4.0984583
3.2507658 11.811008 2.8968062
1.4781895 7.164331 1.7298347
2.597831 18.655874 4.4541225
0.28535649 3.8887048 0.92203498
0.024058428 2.9559364 0.69901377
-0.12236704 2.1455252 0.50817704
-0.2965447 2.4169695 0.57582688
-0.8971433 4.7364917 1.1399531
-1.3525456 5.2465396 1.2812132
-2.7437294 8.3517179 2.0787759
-2.6951439 6.6986041 1.7074238
-1.9937189 4.1523433 1.0892233
-1.7111387 3.0394807 0.82481772
-2.1298413 3.2660725 0.92203498
-1.991987 2.6589322 0.78563374
-1.5350821 1.7929133 0.55814034
-1.8047655 1.8493783 0.61105353
-2.069175 1.8610617 0.65809405
-2.0872397 1.6447587 0.62839687
-1.8773462 1.2906393 0.53872532
-2.1486018 1.2796652 0.59136593
-2.3667824 1.2083633 0.62839687
-2.3862331 1.0284674 0.61445171
-2.4211521 0.86144274 0.60768956
-1.8459371 0.52425921 0.45377198
-2.2958617 0.49321088 0.55528891
-2.3592141 0.34811682 0.56392425
-2.2820244 0.18614152 0.54142278
-1.7536829 0.028548414 0.51736253
-2.1622794 0.17637409 0.63993835
-2.2103038 0.32614419 0.65904564
-2.2861369 0.49112171 0.68974036
-2.272748 0.64547652 0.69691879
-2.273123 0.80877423 0.71169317
-1.8069154 0.77878129 0.58039385
-1.7524154 0.89469755 0.58039385
-2.3291628 1.3872039 0.79966921
-2.2339694 1.5358108 0.79966921
-2.2883492 1.8032342 0.85939741
-1.9363679 1.741612 0.76822549
-2.2869668 2.3434994 0.96589172
-2.3521833 2.7472544 1.0668248
-1.9238906 2.5680361 0.94650757
-1.7765071 2.724241 0.95935023
-1.329926 2.3623359 0.79966921
-2.5156074 5.2392869 1.7143755
-1.7098204 4.2496467 1.3512011
-1.5109171 4.5991244 1.4279636
-1.5346017 5.9527369 1.8133234
-1.1440367 6.0399718 1.8133234
-2.2607818 18.426365 5.476089
-0.63600248 11.151363 3.2947276
0.073886968 9.0781155 2.677913
0.54182214 7.3836989 2.1838684
3.083616 22.144459 6.5951052
3.4517891 16.729763 5.0388203
2.8046489 10.190132 3.1176143
2.3010025 6.6377149 2.072273
4.8841119 11.590665 3.7101114
1.9956361 3.988616 1.3155926
2.7512133 4.7060857 1.6079946
2.1021047 3.1116402 1.1076782
3.2052364 4.1363354 1.5435666
3.89395 4.4009089 1.7333647
3.8702886 3.8389165 1.6079946
3.6515017 3.1782622 1.4279636
3.2058482 2.4427059 1.1888759
1.8522813 1.2294942 0.65578908
2.0177815 1.1576792 0.68620163
1.9766929 0.96897042 0.64936352
4.4343958 1.8262249 1.4146223
4.0469184 1.3660954 1.2599218
3.7720187 1.0052273 1.1514869
2.8580465 0.56547868 0.85939741
2.7684703 0.36256596 0.823605
2.5555742 0.16663083 0.7554332
9.681613 0 3.440846
5.2889385 0.34485409 1.8836806
2.8379388 0.37166375 1.0172163
2.8077431 0.55552596 1.0172163
3.1512599 0.83979774 1.1590457
4.3817754 1.4791312 1.6436162
4.3563476 1.7940823 1.674402
4.2702823 2.0932827 1.6901933
2.1464167 1.2314823 0.87947363
2.2189178 1.4728576 0.94651961
14.934422 11.379329 6.6728778
7.0621386 6.1468763 3.3274612
5.0287471 4.9879847 2.5172837
4.6935496 5.3046093 2.5172837
4.9844165 6.4323545 2.8920832
2.496629 3.6956348 1.5850555
1.966435 3.3636835 1.3847491
3.5883086 7.1718411 2.8501062
1.8125169 4.3013506 1.6588786
4.726295 13.633971 5.1284003
3.2789228 11.913311 4.3914323
1.891896 9.1694393 3.3274612
5.200491 37.346432 13.400991
0.62292302 8.488903 3.0250688
0.10961752 13.468145 4.7867384
-0.98181248 17.21463 6.1280236
-5.781991 47.125771 16.874094
-3.9547739 20.879333 7.5524549
-1.542972 5.9852052 2.1966901
-2.6566086 8.0865288 3.0250688
-1.4314547 3.5577869 1.3629447
-2.3423138 4.878366 1.9232658
-1.7559898 3.1191494 1.2721434
-2.2920361 3.5147951 1.4912926
-2.3361254 3.118293 1.3847491
-2.2937987 2.6790636 1.253454
-1.9272506 1.9748914 0.98070407
-1.9801478 1.7809886 0.94651961
-1.3986697 1.1021609 0.6328752
-1.9532046 1.3427905 0.84238774
-2.2881682 1.3627883 0.94651961
-1.7769921 0.90724522 0.70909172
-2.2725143 0.97945464 0.87947363
-2.2936478 0.81607687 0.86522233
-2.2922006 0.65100116 0.84686595
-2.2004492 0.4727138 0.79988199
-2.2041824 0.32524094 0.79184878
-2.2318859 0.18205179 0.79584688
-1.9266937 0.031364877 0.80588841
-1.9470264 0.1588162 0.81698954
-2.2481933 0.33173501 0.9504199
-1.7483188 0.37558436 0.74786347
-2.2442927 0.63739502 0.97572792
-2.2952778 0.81665689 1.018881
-2.225018 0.95898372 1.0132973
-2.2310944 1.1390876 1.047664
-2.2403448 1.3343056 1.0905453
-2.3092763 1.5875829 1.1719993
-2.2286291 1.7561744 1.1866643
-2.1363161 1.9214498 1.2016685
-2.2148423 2.2695923 1.3262633
-2.1991668 2.9354787 1.5339819
-2.1421866 3.8051476 1.8262429
-1.5875916 3.3064971 1.5339819
-1.3081644 3.2513568 1.465717
-1.8888088 5.7494006 2.530946
-1.8018348 6.9893374 3.018651
-6.2132416 32.802975 13.96278
-2.9087434 23.707539 9.9893131
-6.5189967 114.30097 47.880627
0.14126369 17.35635 7.2590113
0.71805763 9.7853537 4.1034331
6.4114285 46.042568 19.441713
4.4958243 21.789881 9.3049116
1.9962407 7.2529421 3.1461186
1.600204 4.6161175 2.0432599
1.8253216 4.331738 1.9658895
2.3220036 4.6409168 2.1703079
1.9408288 3.3198829 1.6082956
2.5347602 3.7520785 1.8937144
3.4241726 4.4188709 2.3379719
2.8936141 3.2703378 1.8262429
5.5746241 5.5294371 3.2837882
5.9225831 5.1550088 3.2837882
6.0686226 4.6240053 3.1908178
3.3941047 2.2529147 1.7037301
2.0900912 1.1991661 1.0077695
4.3442512 2.1295421 2.0234008
2.9525025 1.2159343 1.33541
2.7748561 0.93669254 1.224836
2.3157554 0.61713922 1.0022964
2.1617074 0.42770454 0.9215948
2.141468 0.28045213 0.90325224
2.6020629 0.16966203 1.0905453
5.8360553 0 2.8245382
4.9501576 0.32276461 2.4008682
2.9659262 0.38842532 1.4477086
2.7675407 0.54757166 1.3654017
2.8903759 0.77027315 1.4477086
3.554929 1.2000173 1.8158994
4.45121 1.8331497 2.3298385
2.8167753 1.3807769 1.5182475
1.9132382 1.0976987 1.0675503
2.1196821 1.4069874 1.2313163
2.3479524 1.7890296 1.4286457
2.450918 2.133276 1.5725923
3.107949 3.0827563 2.118638
2.7981896 3.1624899 2.0437062
2.1919932 2.8287518 1.7319932
2.0188963 2.988471 1.7454804
1.8936068 3.2391074 1.8158994
1.9235233 3.8444865 2.0805552
1.4114404 3.3495409 1.7591609
0.92993641 2.6825929 1.3741206
0.7990939 2.9033482 1.4574155
2.2444086 10.877959 5.3756156
5.8801389 42.227203 20.634344
0.26511088 32.572823 15.76514
-0.21891347 3.8383241 1.8606937
-1.408114 11.476748 5.5961761
-2.1518617 11.36081 5.5961761
-3.8972054 15.117302 7.5556974
-1.7211987 5.2392068 2.669004
-1.8330464 4.5559168 2.3767562
-2.0234637 4.214293 2.2625606
-1.2983669 1.9910218 1.1504014
-1.5485711 1.5868511 1.0731031
-1.7969352 1.6162031 1.1697012
-2.2588336 1.7799758 1.3918669
-2.1592524 1.4844444 1.2681723
-2.2922621 1.3652265 1.2912682
-2.2791817 1.1636387 1.2385297
-2.2445085 0.9673841 1.1828998
-2.2150095 0.78809744 1.1378555
-2.1781082 0.61859816 1.0958524
-2.2373936 0.48065037 1.1075605
