# .PCD v0.7 - Point Cloud Data file format
VERSION 0.7
FIELDS x y z
SIZE 4 4 4
TYPE F F F
COUNT 1 1 1
WIDTH 516
HEIGHT 1
VIEWPOINT 0 0 0 1 0 0 0
POINTS 516
DATA ascii
14.92065 43.041687 0.62227213
14.218086 43.278847 0.62227213
13.47773 43.394993 0.62070519
12.58889 42.991467 0.61192089
12.161623 44.186829 0.62603426
11.071358 42.945919 0.60581934
10.357219 43.063713 0.60502243
9.4754019 42.422947 0.59377414
8.7034521 42.182961 0.58835417
7.9083257 41.752213 0.58047366
7.3340836 42.491886 0.5890193
6.5654607 42.118011 0.58227795
5.9793406 42.939602 0.59221226
5.3232546 43.386868 0.59710652
4.5104294 42.470474 0.58340698
3.8375194 42.749676 0.58630645
3.0151536 41.089104 0.56278414
2.2839117 40.045017 0.54790181
1.6055753 39.432861 0.53909719
0.96089321 39.346397 0.53763002
0.31918058 39.216091 0.53570753
-0.32741448 40.227749 0.54952717
-0.98513621 40.339092 0.55119425
-1.6245881 39.899815 0.54548103
-2.3408823 41.043911 0.5615688
-3.0457728 41.506367 0.56849927
-3.8095994 42.438648 0.58204079
-4.4443545 41.848312 0.57486045
-5.1537504 42.005333 0.57809335
-5.8817339 42.238659 0.58254498
-6.506413 41.739212 0.57704109
-7.4421239 43.117847 0.5976963
-7.9260426 41.845749 0.58177412
-8.5890589 41.628532 0.58062118
-9.7483406 43.644939 0.61087781
-10.053295 41.800041 0.58726853
-10.998359 42.662754 0.60182488
-12.208634 44.357635 0.62845421
-12.864927 43.934143 0.62533855
-13.639862 43.917015 0.62817204
-14.342434 43.657356 0.6277144
-14.965954 43.172375 0.62416148
-16.184551 44.341881 1.2898271
-15.580513 44.945194 1.2998265
-14.696306 44.734512 1.2866441
-13.751741 44.277241 1.2668854
-12.86347 43.929169 1.2507688
-11.792351 42.845154 1.2142776
-11.101026 43.061001 1.2151122
-10.339633 42.990593 1.2082157
-9.5821352 42.90081 1.2011493
-8.6671829 42.007175 1.1720234
-7.9888277 42.177227 1.172984
-7.2825956 42.193581 1.1699867
-6.7074275 43.02874 1.1899594
-5.9062576 42.414772 1.1701661
-5.0993347 41.561821 1.1441926
-4.5167694 42.530174 1.1686721
-3.8280146 42.643795 1.1699269
-3.1755326 43.274673 1.1856596
-2.4152043 42.347038 1.159013
-1.6691691 40.99472 1.1211087
-0.98017281 40.135853 1.097039
-0.32649246 40.114464 1.0961637
0.32355234 39.753227 1.0862926
0.9728508 39.836037 1.0888441
1.5820239 38.854439 1.062577
2.207119 38.69857 1.0591567
2.8268836 38.523445 1.0554832
3.5382035 39.415321 1.0813541
4.2729959 40.234787 1.105598
5.1180782 41.714588 1.1483983
5.8541231 42.040375 1.159837
6.6502047 42.661652 1.1798075
7.1989422 41.708912 1.1565473
7.9395833 41.917236 1.1657535
8.5705357 41.538754 1.1589543
9.2803631 41.549725 1.1633213
10.05409 41.803345 1.174849
10.715053 41.563805 1.1728638
11.517404 41.846188 1.1859658
12.238712 41.795601 1.190021
12.93079 41.633976 1.1912549
13.479465 41.030537 1.1801112
13.954932 40.255871 1.1642101
14.584426 39.957912 1.7440004
14.955613 43.14254 1.8721223
13.924347 42.384727 1.829159
13.148848 42.336067 1.8175807
12.486971 42.64341 1.821807
11.913581 43.285618 1.8407139
11.131768 43.180252 1.8282849
10.490466 43.617733 1.8393335
9.7655191 43.721851 1.8367771
8.9878149 43.56118 1.8236388
8.0793161 42.654964 1.7799591
7.4319339 43.058807 1.7915254
6.6883612 42.906425 1.7804191
6.0173807 43.21278 1.7888297
5.3248134 43.39957 1.7927362
4.4639788 42.033092 1.7330586
3.762639 41.915516 1.7254567
2.9559133 40.281803 1.6560045
2.2916822 40.181259 1.6501188
1.6289022 40.005768 1.6416054
0.96671569 39.584816 1.6234711
0.31488559 38.688385 1.5862859
-0.32940069 40.471783 1.659408
-1.0044575 41.130257 1.6868535
-1.6433465 40.360519 1.6561624
-2.339365 41.017307 1.6844527
-3.0089071 41.003975 1.6856934
-3.7903428 42.224133 1.7381611
-4.5529943 42.871269 1.7676173
-5.2262821 42.596497 1.759563
-6.0242572 43.262165 1.790874
-6.6134 42.425545 1.7604648
-7.4722996 43.292679 1.8012558
-7.909658 41.759247 1.7425816
-8.6649141 41.996178 1.7581217
-9.508626 42.571697 1.7884585
-10.21992 42.492844 1.7918977
-10.919867 42.358284 1.7934821
-11.952707 43.427776 1.8467592
-12.510119 42.722466 1.8251845
-13.309064 42.851929 1.8397276
-14.27828 43.462074 1.8756531
-14.823417 42.761196 1.8555741
-15.85347 43.434795 2.5287716
-15.372095 44.343971 2.5667944
-14.136956 43.031895 2.4771969
-13.334682 42.93441 2.4587629
-12.767806 43.602474 2.4847894
-11.712962 42.556709 2.4140081
-11.148776 43.246227 2.4425018
-10.379876 43.157917 2.427649
-9.6145849 43.046093 2.4122353
-8.8178186 42.737263 2.3865683
-7.9395986 41.91732 2.3332536
-7.2091403 41.767998 2.3181024
-6.5649686 42.114853 2.3311124
-5.9412246 42.665878 2.3559468
-5.1835303 42.248051 2.3279071
-4.5302153 42.65678 2.3460541
-3.7957628 42.284512 2.3218737
-3.0958192 42.188377 2.3135209
-2.3716569 41.5835 2.2779317
-1.6649387 40.890823 2.2382057
-0.97820264 40.05518 2.191304
-0.32894948 40.416348 2.2104766
0.32524374 39.96104 2.1855748
0.96225375 39.402111 2.1555765
1.6154484 39.675343 2.1716752
2.1997499 38.569366 2.1128185
2.8682191 39.086746 2.143434
3.5666349 39.732044 2.1817157
4.2509866 40.027546 2.2014503
4.9629784 40.450455 2.2288578
5.7267528 41.125687 2.2708998
6.6145024 42.432617 2.348701
7.2429523 41.963898 2.3289747
7.967639 42.065357 2.3414941
8.5787868 41.578747 2.3218737
9.3278561 41.76236 2.3402967
9.9844217 41.51368 2.33516
10.69703 41.493896 2.3435321
11.385577 41.367222 2.346535
12.084021 41.267323 2.3517153
12.976832 41.782227 2.3927798
13.475468 41.018368 2.3612854
13.976313 40.317551 2.33373
14.598296 39.995914 2.9123325
14.612325 42.152256 3.0516226
14.178474 43.158272 3.1073322
12.884086 41.483601 2.9712634
12.510004 42.722069 3.0449789
11.867181 43.117031 3.0589547
11.331646 43.955578 3.1049471
10.33567 42.974113 3.0233321
9.7192774 43.51482 3.0498369
8.9791479 43.519173 3.0394945
8.1471844 43.013275 2.9945011
7.5387001 43.677387 3.0317898
6.6150494 42.436127 2.9377658
5.954895 42.764053 2.9533653
5.3452005 43.565735 3.0023239
4.5501723 42.8447 2.9471383
3.8306956 42.67366 2.9306955
2.9785774 40.59066 2.7839425
2.2943463 40.227974 2.7561405
1.6306698 40.049183 2.741709
0.97605449 39.96722 2.7346478
0.3216399 39.518253 2.703212
-0.33548757 41.219646 2.8195946
-0.99620968 40.79253 2.7911174
-1.6766622 41.178753 2.8190377
-2.3571866 41.329784 2.8316288
-3.0118146 41.043598 2.8150077
-3.7787383 42.09486 2.8909452
-4.5415273 42.763294 2.9415388
-5.2334871 42.65522 2.9395759
-5.9438682 42.684868 2.9478965
-6.6419611 42.608768 2.9497175
-7.4417133 43.115471 2.9927855
-7.9617586 42.034313 2.9263477
-8.8536129 42.910744 2.9970002
-9.7166929 43.50325 3.049026
-10.119411 42.074944 2.9600735
-10.879795 42.202847 2.981137
-11.919451 43.306946 3.0724282
-12.529297 42.787956 3.0496745
-13.254424 42.676003 3.056669
-13.864532 42.202656 3.0385292
-14.876633 42.914707 3.1068206
-15.803144 43.296917 3.7858329
-15.084302 43.513775 3.7828219
-14.329394 43.617661 3.7710745
-13.390614 43.114498 3.7082345
-12.732111 43.480572 3.7214
-11.642812 42.301834 3.6038153
-10.980276 42.592613 3.6128807
-10.12364 42.092529 3.556011
-9.4974833 42.521809 3.5787413
-8.7346392 42.334114 3.5505066
-7.995276 42.211269 3.5288203
-7.2305355 41.891956 3.4918232
-6.545702 41.991257 3.4907558
-5.87781 42.21048 3.5005615
-5.1638556 42.087696 3.4829459
-4.4660697 42.052784 3.4735801
-3.7819462 42.130596 3.4744618
-3.1433122 42.835587 3.527914
-2.3855824 41.827663 3.4412477
-1.6928482 41.576279 3.4178457
-0.9825747 40.234207 3.3057654
-0.32828829 40.33511 3.3131781
0.32229137 39.598301 3.2526555
0.99229121 40.632076 3.3384557
1.6235852 39.875183 3.2780042
2.2729473 39.852772 3.2787693
2.924608 39.85519 3.2824502
3.5649438 39.713207 3.2751024
4.251317 40.030659 3.3065517
4.9407845 40.269566 3.3324876
5.7397823 41.219257 3.4183586
6.4809194 41.575668 3.4562078
7.1851015 41.628723 3.4698818
7.905005 41.734684 3.4889781
8.5147009 41.268143 3.4611049
9.2512541 41.419399 3.4859598
10.030255 41.70425 3.5232089
10.744663 41.678669 3.535356
11.49966 41.781715 3.559505
12.068893 41.215664 3.5275519
13.066832 42.071999 3.6185701
13.552794 41.253746 3.5666964
13.808416 39.833218 3.462857
14.048368 38.489239 3.9295518
14.487876 41.793259 4.2422338
13.832723 42.105831 4.2505407
12.945624 41.68174 4.1859002
12.491911 42.660282 4.2631836
11.904261 43.251755 4.3023553
11.039853 42.823715 4.2413378
10.3299 42.950123 4.2366414
9.6258812 43.096664 4.2350783
8.8889322 43.081924 4.2188506
8.0863476 42.692081 4.167232
7.3359237 42.502548 4.1365261
6.8053565 43.656963 4.237535
5.948595 42.718811 4.1365261
5.2233653 42.572723 4.1136017
4.4358678 41.768398 4.0283723
3.6888807 41.093853 3.9569995
2.9450247 40.133419 3.8593898
2.3052652 40.419418 3.8827693
1.6386212 40.244465 3.8628888
0.96783173 39.630516 3.8019423
0.32148847 39.499649 3.7883837
-0.32422692 39.836109 3.8206532
-0.98040229 40.145252 3.8513234
-1.620554 39.800735 3.8202972
-2.2715645 39.828526 3.8260074
-3.0497775 41.56094 3.996666
-3.7395465 41.658268 4.0113482
-4.5021863 42.392857 4.0885983
-5.1588926 42.047241 4.0628271
-6.0136476 43.185974 4.1817627
-6.5544395 42.04731 4.081295
-7.4281282 43.036758 4.188518
-7.9896636 42.181641 4.1174068
-8.5441122 41.41069 4.0551929
-9.6887312 43.378059 4.2627306
-10.157502 42.233322 4.1659355
-10.836843 42.036232 4.1633444
-11.657916 42.356709 4.2133231
-12.342576 42.150299 4.2122192
-13.078418 42.109303 4.2288384
-13.873867 42.231068 4.2631836
-14.543968 41.95507 4.2586584
-15.670377 42.933163 5.0141306
-14.926044 43.057243 4.9995818
-14.382262 43.778587 5.0554848
-13.444243 43.287174 4.9728041
-12.776628 43.632595 4.9879313
-11.860106 43.091324 4.9033341
-11.070558 42.942814 4.8652835
-10.228076 42.526756 4.798645
-9.4879065 42.478931 4.7751875
-8.7379284 42.350056 4.7440815
-8.1476603 43.015785 4.8031626
-7.3146892 42.37952 4.7181954
-6.6055312 42.375065 4.7051044
-5.9228325 42.533802 4.7113996
-5.2008076 42.388866 4.6853466
-4.4876084 42.255592 4.6619229
-3.7895465 42.215263 4.6500511
-3.1090338 42.368458 4.6607332
-2.3835394 41.79184 4.5924253
-1.6578054 40.715633 4.4706049
-0.98060989 40.153751 4.4065738
-0.32601544 40.055855 4.3946652
0.31519032 38.725826 4.2487435
0.90542388 37.075054 4.0687094
1.4892346 36.575539 4.0160198
2.1348956 37.43224 4.1133571
2.8755543 39.186707 4.3107252
3.4811652 38.779919 4.2716446
4.2363653 39.889874 4.4009204
5.0124941 40.854031 4.515697
5.7538266 41.320114 4.576961
6.5255814 41.862183 4.6481562
7.0574193 40.888962 4.552249
7.8682876 41.540833 4.6384683
8.6151762 41.755116 4.6774359
9.2111044 41.239643 4.6358752
9.9819822 41.503536 4.6831865
10.698934 41.501282 4.7019625
11.605066 42.164692 4.797893
12.3479 42.168484 4.8205585
12.934868 41.647106 4.7843943
13.422714 40.857792 4.7181954
13.97788 40.322071 4.6819878
14.682697 40.227154 5.2909865
14.539034 41.940834 5.4845257
13.837493 42.12035 5.477818
13.18584 42.455173 5.4927187
12.721806 43.445381 5.5932932
11.774341 42.779716 5.4821906
11.065858 42.924583 5.4769444
10.293015 42.796761 5.4385343
9.7479534 43.643204 5.5252008
8.63902 41.870678 5.2822957
7.9583907 42.016533 5.2836523
7.5032525 43.472012 5.4505987
6.7163033 43.085678 5.3877373
5.8782949 42.213963 5.266068
5.2619767 42.887424 5.3386869
4.4382815 41.791126 5.1925364
3.6640387 40.817116 5.0634336
2.9498765 40.199539 4.9802051
2.2405567 39.284847 4.8617239
1.5604447 38.324455 4.7390981
0.88294393 36.154552 4.4684043
0.28769282 35.347351 4.3674836
-0.29201266 35.878109 4.433063
-0.94196647 38.571392 4.7671056
-1.6092753 39.523735 4.8873978
-2.2823527 40.017677 4.9524159
-2.970643 40.482533 5.0152645
-3.7396443 41.659355 5.1679149
-4.4969854 42.343887 5.2612166
-5.1994543 42.377838 5.2752528
-5.9760566 42.916023 5.3536477
-6.5088949 41.755138 5.2213569
-7.3701725 42.700977 5.3539252
-7.9217591 41.823135 5.2593322
-8.5502329 41.440353 5.2280073
-9.6092281 43.02211 5.4465709
-10.071709 41.876606 5.3216028
-10.836982 42.036774 5.3636646
-11.593862 42.123981 5.3981586
-12.207132 41.687756 5.3670111
-13.181619 42.441586 5.4909606
-13.776013 41.933208 5.4534798
-14.751988 42.555145 5.5648584
-15.402607 42.199539 6.1744714
-15.032617 43.364677 6.3083076
-14.424312 43.906586 6.3521395
-13.449389 43.303741 6.2324224
-12.50151 42.693062 6.1144304
-11.597465 42.137074 6.006968
-10.866801 42.152443 5.9831471
-10.152228 42.211391 5.9672656
-9.4999027 42.532642 5.9900236
-8.7496529 42.406879 5.9514637
-7.9238667 41.834263 5.8522229
-7.2233658 41.850418 5.8372593
-6.5727968 42.165073 5.8654461
-6.0027728 43.10788 5.9822106
-5.143187 41.919235 5.8048711
-4.4818635 42.2015 5.8330817
-3.786032 42.176113 5.8202829
-3.0968184 42.201992 5.8161263
-2.3712027 41.575535 5.7237124
-1.6550496 40.647945 5.5915608
-0.97642261 39.982292 5.4970779
-0.31881139 39.170727 5.3840709
0.30386087 37.333836 5.1315875
0.87474877 35.818977 4.9246731
1.4425386 35.428688 4.8735957
2.0505841 35.95396 4.949789
2.7990437 38.144054 5.2568765
3.5161321 39.169449 5.4053645
4.1646543 39.214634 5.420238
5.0052729 40.795174 5.6492138
5.7358785 41.191223 5.7162309
6.5315204 41.90028 5.8286114
7.20052 41.718056 5.8187976
7.7804084 41.07687 5.7462707
8.5554848 41.465809 5.8193917
9.2029772 41.203259 5.8028016
9.9031744 41.175865 5.8208771
10.57478 41.019684 5.8223629
11.43979 41.564194 5.9252992
12.276648 41.925148 6.0044518
13.136429 42.296085 6.0873971
13.710903 41.73502 6.0379701
14.239187 41.075867 5.9753518
14.601391 40.004395 6.4471111
14.703917 42.416473 6.7963648
14.388345 43.797104 6.9791274
13.379903 43.080009 6.8292441
12.824988 43.797752 6.9090114
12.046539 43.768696 6.872582
11.190972 43.409904 6.7867393
10.416726 43.311134 6.7438922
9.5364799 42.6964 6.6231232
8.7880697 42.593075 6.5840306
8.099966 42.763981 6.5891933
7.4086337 42.923817 6.5943637
6.5266514 41.869045 6.4151473
5.8924541 42.315643 6.4680204
5.2951159 43.157524 6.5826554
4.5154591 42.517834 6.4730163
3.7333508 41.589249 6.3215556
2.8615067 38.995277 5.9194078
2.2199106 38.922848 5.9021459
1.5506144 38.083023 5.770205
0.91034263 37.276466 5.6450052
0.29645988 36.424515 5.5145273
-0.30327323 37.261635 5.641264
-0.92525595 37.887135 5.7374821
-1.5783464 38.764118 5.8734021
-2.2397175 39.270138 5.9548078
-2.9529033 40.240784 6.1084733
-3.7241247 41.486469 6.3059335
-4.4976187 42.34985 6.4474421
-5.2144384 42.499966 6.4823604
-5.9514971 42.739651 6.5328307
-6.5490832 42.012947 6.4371958
-7.376987 42.740459 6.566195
-7.9147415 41.786083 6.4385161
-8.5648422 41.511158 6.4167881
-9.5359783 42.694157 6.6227751
-10.088623 41.946934 6.5314755
-10.874893 42.18383 6.5950537
-11.910993 43.276215 6.7952523
-12.413123 42.39122 6.6871338
-13.116127 42.230717 6.6946101
-13.744728 41.837978 6.6669383
-14.788096 42.659306 6.8352742
-15.718354 43.064613 7.5821958
-15.030915 43.359768 7.5900755
-14.161044 43.105217 7.5041685
-13.632909 43.89463 7.601954
-12.533992 42.803989 7.3767552
-11.689932 42.473034 7.2859573
-10.887278 42.231873 7.2132282
-10.103488 42.008739 7.1460776
-9.4780207 42.434673 7.1913333
-8.6685028 42.013573 7.0951157
-7.8887353 41.648785 7.0108953
-7.1354589 41.341106 6.9386296
-6.5082192 41.750801 6.9886842
-5.7951727 41.617031 6.9495797
-5.1463246 41.944809 6.9893985
-4.4381609 41.789993 6.9506412
-3.7845001 42.159046 7.0008488
-3.071964 41.863289 6.9425116
-2.3487637 41.182098 6.8223
-1.6390024 40.25383 6.6632185
-0.94642204 38.753838 6.4115243
-0.31187177 38.318092 6.3377547
0.30276269 37.198906 6.1526427
0.89010704 36.447865 6.0300193
1.4875051 36.533062 6.0473194
2.1013429 36.843941 6.1036334
2.7474658 37.441177 6.2091589
3.414228 38.034245 6.3158922
4.0955524 38.563969 6.4140787
4.8402677 39.450306 6.5737319
5.6480384 40.560417 6.7731366
6.4233789 41.206543 6.8975801
7.1627579 41.499268 6.9651752
7.7706661 41.025436 6.9059644
8.4258842 40.837673 6.8965335
9.20858 41.22834 6.9868979
9.8391895 40.909824 6.9591422
10.503774 40.744255 6.9591422
11.334482 41.18158 7.0644169
12.109281 41.353588 7.1267953
12.782114 41.155277 7.1275353
13.715025 41.747562 7.2678151
14.127394 40.753376 7.1338296
14.599231 39.998474 7.6412525
