# .PCD v0.7 - Point Cloud Data file format
VERSION 0.7
FIELDS x y z
SIZE 4 4 4
TYPE F F F
COUNT 1 1 1
WIDTH 516
HEIGHT 1
VIEWPOINT 0 0 0 1 0 0 0
POINTS 516
DATA ascii
15.615333 45.045639 0.65124416
14.976827 45.588398 0.65547931
14.064207 45.283302 0.64771485
12.066868 41.208748 0.58654648
11.257422 40.901596 0.57948941
10.560085 40.962688 0.57784277
9.7389202 40.49292 0.56890416
9.0560064 40.545242 0.56749284
8.2869873 40.164482 0.56020105
7.612906 40.192539 0.55878979
6.9342556 40.175381 0.55690807
6.1998415 39.77253 0.54985189
5.5326462 39.731747 0.54797024
4.885201 39.816536 0.54797024
4.1691823 39.257275 0.53926796
3.5311804 39.337086 0.53950316
2.8803439 39.25198 0.53762162
2.2332163 39.156147 0.53574014
1.5962777 39.20451 0.53597534
0.9541527 39.070393 0.53385866
0.31401539 38.58147 0.52703834
-0.31401539 38.58147 0.52703834
-0.94196302 38.571251 0.52703834
-1.5640577 38.413189 0.52515692
-2.1900809 38.39983 0.52539212
-2.8034837 38.204563 0.52327555
-3.4265058 38.171017 0.52351069
-4.0473599 38.110188 0.52351069
-4.6671419 38.039261 0.52351069
-5.2856874 37.958256 0.52351069
-5.8842707 37.748116 0.52186453
-6.4949875 37.630371 0.52162933
-7.109839 37.536583 0.52186453
-7.7198787 37.415882 0.52186453
-8.5230274 38.159008 0.5340938
-9.1430111 38.015224 0.5340938
-9.790659 37.978073 0.53574014
-10.512614 38.195484 0.5411495
-11.16196 38.118458 0.5425607
-11.786041 37.948166 0.5427959
-12.396787 37.73494 0.5425607
-13.18418 38.032482 0.54985189
-13.838939 37.915455 1.1028937
-13.214319 38.119423 1.1024233
-12.559864 38.231339 1.0996011
-11.930805 38.414272 1.0991309
-11.308794 38.6199 1.0996011
-10.541647 38.300968 1.0854905
-9.9168262 38.46748 1.0854905
-9.2893791 38.623798 1.0854905
-8.5469065 38.265919 1.0713803
-7.9263992 38.416824 1.0718507
-7.1334739 37.661362 1.047394
-6.4960971 37.636799 1.0436317
-5.9011803 37.856594 1.0469238
-5.286582 37.96468 1.047394
-4.6658359 38.028614 1.0469238
-4.0462275 38.099522 1.0469238
-3.4255469 38.160336 1.0469238
-2.8039587 38.211037 1.0469238
-2.1875079 38.354717 1.0497456
-1.5643202 38.419636 1.0506862
-0.93833774 38.422802 1.050216
-0.31392753 38.570675 1.0539784
0.31392753 38.570675 1.0539784
0.94169939 38.560455 1.0539784
1.5748236 38.677601 1.0577409
2.2325912 39.145187 1.0713803
2.8694603 39.103661 1.0713803
3.5178804 39.188923 1.075143
4.1552911 39.126472 1.075143
4.8062739 39.173244 1.0784353
5.4456325 39.106873 1.0789057
6.1000104 39.132107 1.0821981
6.84448 39.655247 1.0996011
7.485837 39.521671 1.0991309
8.1594429 39.546318 1.1033641
8.8245707 39.509068 1.1061863
9.5912762 39.87904 1.1207681
10.264899 39.817657 1.1235904
10.952763 39.794678 1.1278238
11.734507 40.073723 1.140995
12.584373 40.5186 1.1593411
13.398052 40.782722 1.1729835
14.105207 40.689373 1.176747
16.287062 44.622734 1.947601
15.575493 44.930714 1.949718
14.83135 45.14558 1.9483067
12.782663 41.157047 1.7669628
11.946639 40.798161 1.7429744
11.112034 40.373356 1.7168704
10.423337 40.43224 1.7119319
9.6431322 40.09465 1.6907673
8.9629803 40.12875 1.6858289
8.2842798 40.15136 1.6808907
7.5207686 39.706097 1.6569052
6.8646984 39.772385 1.6547889
6.1952147 39.742851 1.6491454
5.5308905 39.719135 1.6442074
4.8815556 39.786823 1.6435019
4.1806068 39.364849 1.6230447
3.5270071 39.290592 1.6174015
2.8781943 39.222687 1.6124637
2.2384071 39.247162 1.6117584
1.5943866 39.158066 1.6068206
0.95680094 39.178829 1.6068206
0.31476119 38.673103 1.5856593
-0.31378108 38.552681 1.5807217
-0.94084007 38.525269 1.5800164
-1.5684897 38.522038 1.5807217
-2.1874669 38.354 1.575079
-2.8127229 38.330471 1.5757843
-3.4347157 38.262474 1.575079
-4.0443397 38.081749 1.5701416
-4.6636591 38.010876 1.5701416
-5.281743 37.929928 1.5701416
-5.9010773 37.85593 1.5708468
-6.5164752 37.754864 1.5708468
-7.1237431 37.609989 1.5694362
-7.738452 37.505901 1.5701416
-8.3441591 37.358185 1.5694362
-8.959177 37.25087 1.5708468
-9.7833519 37.949734 1.6068206
-10.399763 37.785461 1.6068206
-11.15363 38.090012 1.6272773
-11.772142 37.903416 1.6272773
-12.554006 38.213505 1.6491454
-13.179977 38.020355 1.6498507
-13.959044 38.244514 2.2265935
-13.165735 37.979271 2.1983819
-12.545804 38.188538 2.1983819
-11.80525 38.010017 2.1767535
-11.151175 38.081627 2.170171
-10.397532 37.777351 2.1429014
-9.7812529 37.941589 2.1429014
-8.9533243 37.226536 2.0940065
-8.3462029 37.367336 2.0940065
-7.7333965 37.4814 2.0930662
-7.1190891 37.585419 2.0921261
-6.512218 37.730198 2.0940065
-5.8919258 37.797226 2.0921261
-5.2782927 37.905148 2.0930662
-4.6585188 37.968979 2.0921261
-4.0435133 38.073967 2.0940065
-3.4278605 38.186108 2.0968273
-2.8058524 38.236843 2.0968273
-2.1899538 38.397602 2.1034093
-1.5646672 38.428162 2.1034093
-0.93896621 38.448536 2.1034093
-0.31301638 38.458729 2.1034093
0.31399587 38.579071 2.1099911
0.95323759 39.032917 2.1353788
1.5940444 39.149662 2.1429014
2.2300918 39.101364 2.1419611
2.8763142 39.197063 2.1494837
3.5139422 39.145054 2.1494837
4.1633496 39.202351 2.1560659
4.8008933 39.129391 2.1560659
5.508306 39.55695 2.1842763
6.169981 39.580975 2.1908588
6.8368177 39.610851 2.1983819
7.503056 39.612579 2.2049644
8.1503086 39.502045 2.2059047
8.9271383 39.968277 2.2397592
9.6086855 39.951424 2.2472827
10.2577 39.78973 2.2472827
11.077395 40.247505 2.2830195
11.76003 40.160885 2.2886622
12.41727 39.980568 2.2896028
13.264972 40.377636 2.3244007
14.111947 40.708817 2.3563781
16.315777 44.701408 3.2549667
15.580383 44.94482 3.2537911
14.852118 45.208797 3.2549667
12.783965 41.161236 2.948174
12.07849 41.248436 2.9399469
11.373573 41.323608 2.9317195
10.540739 40.887646 2.8882334
9.7492647 40.535931 2.8518004
9.0582085 40.555103 2.8423984
8.372592 40.579384 2.8341718
7.6150513 40.203865 2.7989154
6.9391904 40.203976 2.7906892
6.2627034 40.175793 2.7812877
5.5392184 39.778946 2.7472081
4.8742671 39.727421 2.737807
4.2269797 39.801495 2.737807
3.5217412 39.23193 2.6943281
2.8826978 39.284058 2.6943281
2.2350652 39.188564 2.6849275
1.5975972 39.236919 2.6861026
0.95537239 39.120335 2.676702
0.31862542 39.147881 2.6778769
-0.31023684 38.117222 2.6073756
-0.93062836 38.107121 2.6073756
-1.5682445 38.516018 2.6367507
-2.1881135 38.365337 2.6285255
-2.8122947 38.324638 2.6285255
-3.4357309 38.273785 2.6285255
-4.045558 38.09322 2.6203005
-4.662972 38.005272 2.6191256
-5.2809649 37.924339 2.6191256
-5.8843293 37.748493 2.6132505
-6.5038242 37.681568 2.6156006
-7.1131072 37.553837 2.6144257
-7.7303696 37.466728 2.6167755
-8.3354454 37.319172 2.6156006
-8.9458008 37.195255 2.6167755
-9.5457535 37.02808 2.6156006
-10.151752 36.884361 2.6167755
-10.779737 36.813148 2.6238256
-11.647562 37.502296 2.6861026
-12.256442 37.307743 2.6861026
-12.867702 37.119534 2.6872776
-13.621107 37.318645 3.2630994
-13.011868 37.535412 3.2630994
-12.281342 37.383537 3.2320876
-11.635593 37.46376 3.2222202
-11.024256 37.64819 3.2222202
-10.409997 37.822643 3.2222202
-9.5702143 37.122967 3.1489229
-8.9646978 37.273823 3.1489229
-8.3530645 37.398056 3.1475134
-7.7224259 37.428226 3.1390564
-7.1089916 37.532108 3.1376469
-6.5088158 37.710487 3.143285
-5.8914981 37.794479 3.1418755
-5.275538 37.885368 3.1418755
-4.6581807 37.966221 3.1418755
-4.0414009 38.054073 3.143285
-3.4199264 38.097725 3.1418755
-2.8094051 38.285255 3.1531515
-2.1858652 38.325912 3.1531515
-1.561746 38.356415 3.1531515
-0.94056481 38.513996 3.1644278
-0.31340963 38.507046 3.1630182
0.30991808 38.078053 3.1277804
0.9543907 39.080135 3.2109435
1.5910684 39.076569 3.212353
2.2269056 39.045494 3.212353
2.870944 39.123882 3.2222202
3.5073817 39.071968 3.2222202
4.1555767 39.129162 3.2320876
4.8546286 39.567356 3.2743769
5.5169578 39.619083 3.2856541
6.1769652 39.625778 3.2941122
6.8240533 39.5369 3.295522
7.5593157 39.909607 3.3364034
8.2356663 39.915745 3.3476813
9.0227108 40.396175 3.3998427
9.6790428 40.243961 3.3998427
10.367087 40.214046 3.4111209
11.152363 40.519882 3.4520059
11.993723 40.958954 3.5055807
13.646587 43.938671 3.7791207
14.638597 44.558849 3.8524475
15.569997 44.91486 3.9046237
16.290964 44.633427 4.5568414
15.573542 44.925087 4.5601306
14.834883 45.156334 4.558486
14.082651 45.34269 4.5535522
13.19818 45.072216 4.5042162
12.289886 44.652847 4.4417253
11.565725 44.863575 4.4433699
10.922163 45.412663 4.4795485
9.1462755 40.949394 4.0240674
8.3538246 40.488426 3.964879
7.6936898 40.619038 3.964879
6.9236364 40.113857 3.9040489
6.2460251 40.068802 3.8892527
5.5977278 40.199116 3.8925407
4.8779535 39.757469 3.8415768
4.217505 39.71228 3.8300691
3.5582902 39.639088 3.8169177
2.8774908 39.213097 3.7708879
2.2388394 39.254738 3.7708879
1.5940162 39.148968 3.7577369
0.95699716 39.186863 3.7593808
0.3177717 39.042992 3.744586
-0.31791121 39.060131 3.7462299
-0.92854238 38.021706 3.6476016
-1.5479945 38.018677 3.6492453
-2.1900406 38.399124 3.6886959
-2.8147714 38.358387 3.6886959
-3.4264975 38.170925 3.6755455
-4.04916 38.127136 3.6771894
-4.6671305 38.039165 3.6755455
-5.2880383 37.975136 3.6771894
-5.8843389 37.748554 3.6640391
-6.500906 37.664661 3.6656828
-7.1067319 37.520176 3.6623952
-7.7372851 37.500244 3.6722579
-8.3429136 37.352612 3.6706142
-8.9578114 37.245193 3.6739018
-9.5585852 37.077858 3.6722579
-10.160833 36.917358 3.6722579
-10.76039 36.747082 3.6722579
-11.357096 36.567066 3.6722579
-12.271768 37.354393 3.7708879
-12.878158 37.149696 3.7708879
-13.462219 36.883327 4.3075752
-12.860086 37.097565 4.3075752
-12.249206 37.285713 4.3056974
-11.645761 37.496498 4.3075752
-11.029079 37.664665 4.3056974
-10.178369 36.981068 4.2080517
-9.5408993 37.009254 4.1930299
-8.9412394 37.176289 4.1949077
-8.3274765 37.283493 4.1911521
-7.7229695 37.430862 4.1930299
-7.1158705 37.568424 4.1949077
-6.503428 37.679276 4.1949077
-5.8866262 37.763226 4.1930299
-5.2829785 37.938801 4.2024188
-4.6605816 37.98579 4.1986632
-4.0434785 38.073635 4.200541
-3.4247496 38.151455 4.2024188
-2.8020537 38.185074 4.200541
-2.187942 38.362328 4.2155628
-1.5444297 37.931126 4.1648645
-0.92682153 37.951241 4.1648645
-0.3091071 37.978413 4.1667423
0.3174651 39.005322 4.2794075
0.95189333 38.977875 4.2775297
1.5917794 39.094032 4.2925525
2.2269261 39.045856 4.2906747
2.8722003 39.140999 4.3056974
3.507386 39.072018 4.3038197
4.159164 39.162937 4.3207202
4.8544326 39.565758 4.3733015
5.5025215 39.515411 4.3770571
6.2398968 40.029491 4.444664
6.8906288 39.922619 4.444664
7.5650206 39.939724 4.4596882
8.3213472 40.331017 4.5179076
9.0028334 40.307178 4.531054
9.777812 40.654629 4.5873976
10.463892 40.589554 4.5986662
12.390779 45.019421 5.1227307
13.001619 44.400951 5.075767
13.758161 44.297909 5.0889168
14.637701 44.556126 5.1452737
15.40026 44.425217 5.1584234
16.265656 44.564091 5.861414
15.566132 44.903709 5.8719754
14.827837 45.134888 5.869863
13.923877 44.831474 5.8001571
13.048182 44.559967 5.7367887
12.189594 44.288456 5.6755342
11.556718 44.828636 5.7198911
9.9381104 41.321121 5.2510128
9.1226292 40.843521 5.170763
8.4358892 40.886166 5.1580925
7.6706643 40.497475 5.0926275
6.9988441 40.549595 5.0841808
6.2589202 40.151527 5.0208302
5.5809751 40.078812 4.9997139
4.9174676 40.079525 4.9891558
4.2193217 39.729385 4.9363656
3.559865 39.656628 4.9194732
2.8726311 39.14687 4.849793
2.2321389 39.137257 4.8434587
1.5948075 39.168404 4.8434587
0.95371586 39.052502 4.8265672
0.31793335 39.062851 4.8265672
-0.31682068 38.926144 4.8096757
-0.95079535 38.932915 4.8117871
-1.584379 38.912281 4.8117871
-2.1581879 37.840633 4.6829944
-2.7750831 37.817535 4.6851053
-3.3887422 37.750336 4.6829944
-4.0514793 38.148972 4.7399998
-4.653163 37.925323 4.7209978
-5.274569 37.87841 4.7252202
-5.887784 37.770653 4.7231088
-6.5163279 37.754009 4.7336655
-7.1013637 37.491837 4.7146635
-7.714129 37.388016 4.7167749
-8.3477449 37.374241 4.7315545
-8.9589748 37.250027 4.7336655
-9.5598392 37.082722 4.7315545
-10.162167 36.922203 4.7315545
-10.761802 36.751904 4.7315545
-11.617086 37.404175 4.8392358
-12.229707 37.226364 4.8413472
-12.8732 37.135395 4.8561277
-13.63327 37.351971 5.4651937
-13.023487 37.568928 5.4651937
-12.404929 37.759727 5.4628491
-11.641935 37.484184 5.3948517
-11.020677 37.635967 5.390162
-10.415671 37.843262 5.3948517
-9.7642498 37.875633 5.3760939
-8.9430199 37.183689 5.2565184
-8.3328791 37.307682 5.2541738
-7.7245193 37.438374 5.2541738
-7.1141129 37.559147 5.2541738
-6.5047231 37.686775 5.2565184
-5.8878074 37.770805 5.2541738
-5.2722335 37.861637 5.2541738
-4.6552625 37.942436 5.2541738
-4.0370584 38.013184 5.2541738
-3.4284599 38.192787 5.270586
-2.8075914 38.260544 5.2729301
-2.2135937 38.812092 5.3432684
-1.5815574 38.842983 5.3432684
-0.9491021 38.863579 5.3432684
-0.31639531 38.873878 5.3432684
0.31736717 38.993286 5.3596811
0.95201737 38.982952 5.3596811
1.5864154 38.962292 5.3596811
2.2262211 39.033497 5.3737493
2.8637698 39.026115 5.3784385
3.5428486 39.467068 5.4464359
4.1973944 39.522919 5.4628491
4.8567715 39.584824 5.4816074
5.5004487 39.500526 5.4816074
6.1584344 39.506901 5.4956765
6.8906221 39.922581 5.568367
7.5617528 39.92247 5.5847812
8.2381468 39.927769 5.6035404
8.9985285 40.287907 5.6738892
9.6810284 40.252216 5.6903043
10.462704 40.584946 5.7606554
11.158138 40.540867 5.7794161
11.955592 40.828735 5.847425
13.443537 43.284897 6.2297106
14.487175 44.097935 6.3798227
15.096838 43.549934 6.3352575
16.228052 44.461063 7.1653481
15.50779 44.735409 7.1679268
14.81479 45.095173 7.1859765
13.00789 41.882221 6.6393647
11.999028 40.97707 6.4640546
11.3169 41.117695 6.4563208
10.505849 40.752304 6.3712478
9.8092775 40.785458 6.3506241
9.0327597 40.441166 6.2732878
8.3492184 40.466099 6.2552433
7.5943828 40.094742 6.1779094
6.9204836 40.095592 6.1598654
6.2459521 40.068333 6.1392436
5.5224848 39.658775 6.0619135
4.8617148 39.625114 6.04387
4.216094 39.698997 6.04387
3.5571783 39.626701 6.0232491
2.9029825 39.56049 6.0052061
2.2586734 39.602497 6.0052061
1.6089171 39.514935 5.9871631
0.95346653 39.042294 5.912415
0.31771168 39.035618 5.9098377
-0.31674173 38.916443 5.8917956
-0.94972569 38.889114 5.8892179
-1.5825965 38.868504 5.8892179
-2.2072926 38.701614 5.8685985
-2.839437 38.694519 5.8737535
-3.4673679 38.626217 5.8711758
-4.097424 38.581593 5.8737535
-4.7082858 38.374599 5.8531342
-5.2806277 37.921921 5.796432
-5.8945599 37.814121 5.7938547
-6.4890089 37.595734 5.7758131
-7.1000938 37.48513 5.7758131
-7.7092972 37.364597 5.7758131
-8.3164577 37.234161 5.7758131
-8.925396 37.110416 5.7783904
-9.7790089 37.932884 5.9304576
-10.395145 37.768684 5.9304576
-11.008528 37.594482 5.9304576
-11.618994 37.410316 5.9304576
-12.385798 37.701492 6.0077834
-12.992247 37.478809 6.0052061
-13.617775 37.309517 6.5689216
-13.008685 37.52623 6.5689216
-12.396149 37.733002 6.5689216
-11.745054 37.8162 6.5492525
-11.123191 37.986061 6.5464425
-10.372681 37.687065 6.4649572
-9.7536345 37.834457 6.4621472
-9.1404848 38.004723 6.4649572
-8.5169697 38.131886 6.4621472
-7.898603 38.282104 6.4649572
-7.1068797 37.520958 6.3160424
-6.5009894 37.665146 6.3216615
-5.939384 38.101673 6.3778548
-5.3207607 38.210125 6.3806648
-4.7146616 38.426563 6.4031425
-4.0885692 38.498215 6.4031425
-3.4598746 38.542744 6.4003325
-2.8333006 38.610897 6.4031425
-2.2044573 38.651897 6.4031425
-1.5798675 38.801479 6.4228106
-0.94808799 38.822052 6.4228106
-0.31591898 38.815353 6.4200006
0.31716335 38.968246 6.4452887
0.95057654 38.923954 6.4396691
1.5853966 38.937275 6.4452887
2.2247713 39.008076 6.4621472
2.8979523 39.49194 6.5492525
3.5388582 39.422615 6.5464425
4.1926293 39.47805 6.5661116
4.8346567 39.404575 6.5661116
5.4941483 39.45528 6.5885911
6.1539497 39.47813 6.6082606
6.8824096 39.875 6.6925607
7.5526752 39.874546 6.7122307
8.2007113 39.74633 6.7122307
8.8762035 39.740234 6.7347112
9.5536623 39.722645 6.7571921
10.338929 40.10482 6.8499269
11.00838 39.99675 6.8611674
11.83462 40.415611 6.9651465
12.526175 40.331215 6.9848189
13.186288 40.138126 6.9876289
14.205193 40.977802 7.1731153
14.876013 40.756794 7.7861204
