# .PCD v0.7 - Point Cloud Data file format
VERSION 0.7
FIELDS x y z
SIZE 4 4 4
TYPE F F F
COUNT 1 1 1
WIDTH 1578
HEIGHT 1
VIEWPOINT 0 0 0 1 0 0 0
POINTS 1578
DATA ascii
-0.66969889 27.422651 1.1246707
-1.1205784 27.521357 1.1293174
-1.586025 27.808605 1.1420125
-2.0616291 28.094917 1.1549957
-2.5350444 28.240204 1.162511
-3.0267928 28.500463 1.1750973
-3.5432067 28.878693 1.1929122
-4.0371861 28.992357 1.2001632
-4.5386953 29.116131 1.2081854
-5.1684923 29.944981 1.2459052
-5.6830568 30.003847 1.2520376
-6.2899442 30.48543 1.2762375
-7.2759151 32.575478 1.3685123
-8.115036 33.741062 1.4228404
-9.8878756 38.355179 1.6239876
-11.404707 41.436726 1.76209
-12.481033 42.623135 1.8209407
-13.245982 42.648819 1.8310077
-13.908093 42.335251 1.8270239
-15.060176 43.444176 1.8852113
-16.029978 43.918388 2.5569263
-15.103946 43.570438 2.5220194
-14.231078 43.318394 2.4936898
-13.824023 44.509972 2.5489919
-12.580681 42.963432 2.4483721
-11.746265 42.677711 2.4208717
-10.978951 42.587471 2.4052961
-9.7494717 40.536793 2.2802098
-8.2894049 37.113041 2.0797563
-7.0406432 34.123837 1.9055706
-6.0025444 31.69059 1.7640009
-5.2321219 30.313637 1.6823912
-4.6217456 29.648907 1.6411059
-4.1165004 29.561937 1.6323664
-3.5742736 29.131901 1.6051949
-3.0592785 28.806351 1.5843027
-2.5684586 28.612436 1.5711299
-2.0805774 28.353134 1.5548257
-1.610274 28.233774 1.5466377
-1.1329474 27.82514 1.5230408
-0.67626095 27.691353 1.5149145
-0.22317182 27.419985 1.4996712
0.22240229 27.325436 1.4945002
0.66680098 27.303988 1.4937228
1.0909652 26.794056 1.4666032
1.5195758 26.643517 1.4595239
1.9310851 26.315924 1.4431094
2.3474786 26.150736 1.4359562
2.7221513 25.631941 1.4097153
3.1445463 25.629435 1.4122057
3.6169534 25.974527 1.434275
4.1473322 26.605501 1.4726495
4.584383 26.560797 1.4741105
5.0545464 26.68561 1.4854075
5.5274205 26.789711 1.4960126
6.0652328 27.155054 1.5217264
6.6374311 27.59741 1.5523647
7.1608133 27.776875 1.5688089
7.7753587 28.250214 1.6024792
8.6433372 29.517279 1.6821114
9.7682629 31.451416 1.8011563
11.310768 34.429176 1.9819684
13.635335 39.333927 2.2767944
14.564874 39.904346 2.9056649
14.33507 41.352455 2.993721
13.627414 41.480881 2.9865623
12.271286 39.51054 2.8299427
10.116999 34.549877 2.4625127
8.9618101 32.560947 2.3100493
7.8335629 30.386477 2.1464489
7.0152402 29.168282 2.0520587
6.3354764 28.364979 1.9880252
5.7380652 27.81064 1.9423689
5.2187352 27.55245 1.9181485
4.728694 27.396896 1.901708
4.2182441 27.06041 1.8733366
3.7373085 26.838837 1.8535401
3.2660146 26.619455 1.8344743
2.8195946 26.549475 1.8262464
2.3736377 26.442146 1.8159651
1.9396789 26.433037 1.8129307
1.5033101 26.35832 1.8058884
1.074216 26.3827 1.8061213
0.65055925 26.638926 1.8226957
0.21845126 26.839994 1.8359667
-0.22060432 27.104528 1.854062
-0.66547853 27.249838 1.8644958
-1.1066288 27.178757 1.8606182
-1.5653851 27.446712 1.8804575
-2.0255127 27.602739 1.8931557
-2.5026133 27.878925 1.9146386
-2.9747429 28.010359 1.9267356
-3.470649 28.287315 1.9494145
-3.9865353 28.628616 1.9771457
-4.4631858 28.631731 1.982116
-5.0467992 29.239922 2.0296385
-5.502923 29.052826 2.0226016
-6.1998615 30.048826 2.0986898
-6.9460444 31.098595 2.1796169
-7.7589712 32.260601 2.2696109
-9.1306639 35.417946 2.5018635
-10.996194 39.952473 2.834444
-12.089998 41.287739 2.9427481
-12.898106 41.528744 2.9744966
-14.050214 42.767857 3.0792227
-14.975594 43.20018 3.1274877
-15.637195 42.842255 3.7460775
-15.206858 43.86731 3.8135562
-14.378931 43.768448 3.7841113
-13.568739 43.688015 3.7575622
-12.455515 42.535988 3.6405554
-11.352102 41.245598 3.5138314
-10.491919 40.698269 3.4521947
-9.2427092 38.429756 3.246577
-7.7988029 34.916534 2.9386623
-6.7890153 32.904274 2.7596383
-5.833353 30.797342 2.5746272
-5.1405463 29.78307 2.4825103
-4.5331922 29.080828 2.4175048
-4.0398154 29.011238 2.4059341
-3.5085435 28.596172 2.366462
-3.0059893 28.304577 2.3379717
-2.5170829 28.040113 2.3124359
-2.0487494 27.919401 2.2994256
-1.581551 27.730158 2.2814171
-1.1206133 27.522215 2.2625084
-0.66136175 27.081264 2.2250795
-0.21984619 27.011381 2.2187495
0.2202253 27.057961 2.2225759
0.65407324 26.782818 2.2005582
1.0802336 26.530489 2.1809821
1.4918742 26.15781 2.1520567
1.9224718 26.198545 2.157697
2.3422763 26.092783 2.1518419
2.7886114 26.257734 2.1689014
3.214889 26.202761 2.1683962
3.6276088 26.051048 2.1604421
4.0639734 26.070749 2.1672754
4.5726023 26.49254 2.2082345
5.0379014 26.597733 2.2235441
5.5519581 26.908636 2.2567921
6.0186219 26.946369 2.2678735
6.5787807 27.353552 2.3108504
7.1143913 27.596802 2.3408744
7.709157 28.009682 2.3862257
8.5691767 29.264017 2.5046384
9.6761169 31.154728 2.6795866
10.83957 32.994884 2.8526556
12.247254 35.329723 3.0713506
13.415857 36.75631 3.7526283
13.338215 38.476826 3.9055984
12.574172 38.274891 3.8638113
11.170791 35.967209 3.6120172
9.8753481 33.724636 3.3702147
8.6939192 31.58762 3.142096
7.6969824 29.85668 2.9570596
6.8755426 28.58744 2.8198926
6.2483006 27.97468 2.7490516
5.7069225 27.6597 2.7086103
5.1650863 27.269209 2.6617844
4.6938009 27.194735 2.6467056
4.1882992 26.868309 2.6079552
3.700547 26.574841 2.5732818
3.2466393 26.461536 2.5568538
2.7817705 26.193317 2.5262265
2.3461528 26.135965 2.5166783
1.9014677 25.912313 2.4918315
1.4770209 25.897377 2.4877534
1.0559087 25.933071 2.4892011
0.64366394 26.356579 2.528511
0.21584702 26.520023 2.5435169
-0.22021672 27.056906 2.5950089
-0.65360421 26.763611 2.5675595
-1.0821275 26.577005 2.5510094
-1.5229235 26.702211 2.5650673
-1.9794923 26.975595 2.5940809
-2.4433765 27.21903 2.6209686
-2.9138422 27.436914 2.6461658
-3.3999882 27.711399 2.6776218
-3.8940217 27.964247 2.7078199
-4.3962131 28.202097 2.7374184
-4.9590797 28.731697 2.7962892
-5.4546175 28.797794 2.8109918
-6.1265516 29.693516 2.9077742
-6.9700632 31.206129 3.0666039
-7.6930652 31.986574 3.1551864
-8.871172 34.411373 3.4081647
-10.316115 37.481544 3.7283788
-11.870399 40.5378 4.0510769
-12.801507 41.21772 4.1393008
-13.896766 42.30077 4.2702198
-14.494765 41.813133 4.2442513
-15.633617 42.832455 5.0023689
-14.910276 43.011761 4.9943004
-13.996027 42.602917 4.9197197
-13.30288 42.832016 4.920516
-12.579517 42.959457 4.9109807
-11.364273 41.289818 4.6983414
-10.416075 40.404068 4.5776515
-8.9389381 37.166721 4.1938281
-7.8423052 35.111301 3.9469695
-6.947278 33.671322 3.771884
-6.0267653 31.818466 3.5528646
-5.1994953 30.124605 3.3538315
-4.5195556 28.993347 3.2192686
-3.9998062 28.723919 3.1817014
-3.4600978 28.201319 3.1171615
-2.9514647 27.79117 3.0661099
-2.4589055 27.392021 3.017257
-1.9769168 26.940496 2.9635835
-1.5393625 26.990446 2.9659286
-1.0736955 26.369915 2.8954353
-0.6463719 26.467464 2.9046061
-0.21296275 26.165648 2.870723
0.21356854 26.240078 2.8788891
0.63507259 26.004784 2.8538303
1.0536915 25.878618 2.8414905
1.4721751 25.812416 2.836477
1.8780261 25.592861 2.8153372
2.2971668 25.590265 2.8187919
2.7172587 25.585873 2.8228064
3.1405997 25.597269 2.8293295
3.5761161 25.681263 2.8446715
4.0399413 25.91658 2.8776407
4.4816089 25.965345 2.8907731
4.9372129 26.066145 2.9105577
5.4442272 26.386497 2.955833
5.9438987 26.61182 2.9915168
6.4722214 26.910494 3.0365334
7.0547762 27.365555 3.1004298
7.6439309 27.772697 3.1602373
8.3475637 28.507202 3.2588472
9.3460264 30.091917 3.4569411
10.534713 32.066917 3.7030389
11.429747 32.971458 3.8284729
11.780774 32.276562 4.2452636
11.131013 32.109695 4.198926
10.631952 32.362911 4.2088475
10.021002 32.265171 4.1743679
9.4021778 32.108742 4.133779
8.6135473 31.295603 4.0105095
7.5829372 29.414297 3.7531049
6.8497176 28.480066 3.6191947
6.2256346 27.873199 3.5287287
5.5890622 27.088469 3.4174109
5.0659719 26.745932 3.3633475
4.5776539 26.521807 3.3253517
4.0571852 26.027201 3.2546246
3.6005883 25.857004 3.2255852
3.1538625 25.705366 3.1998401
2.7025695 25.447557 3.1618521
2.2889547 25.498783 3.163168
1.8727554 25.521034 3.1617274
1.4534491 25.484081 3.1538002
1.0376499 25.484636 3.151361
0.6279341 25.712479 3.1778502
0.20803677 25.560417 3.1582198
-0.21100797 25.925474 3.2033257
-0.63456911 25.984165 3.2114286
-1.0632658 26.113764 3.229157
-1.5032058 26.356491 3.2617662
-1.9430467 26.478931 3.2803986
-2.4055717 26.797888 3.3243241
-2.8548317 26.881268 3.3399901
-3.3580506 27.369589 3.4070051
-3.8856897 27.904411 3.4809933
-4.4061079 28.265572 3.5345266
-5.0689993 29.368546 3.6822808
-5.5775981 29.447075 3.7030208
-6.332015 30.689333 3.8716867
-7.5103335 33.625008 4.2569041
-8.1902361 34.053734 4.327486
-9.002058 34.919083 4.4554858
-10.108542 36.727371 4.7065868
-11.446686 39.090801 5.0326715
-12.717901 40.948528 5.2977934
-13.532251 41.191216 5.3569827
-14.546782 41.963184 5.4874487
-15.454859 42.342697 6.1954174
-14.860032 42.866817 6.2358837
-14.073832 42.839745 6.1977954
-13.274537 42.740761 6.1513958
-12.402699 42.355618 6.0661025
-11.321908 41.135891 5.8642416
-9.8900557 38.363636 5.4453616
-8.5578136 35.582066 5.0301027
-7.7867594 34.862614 4.9098263
-7.1027474 34.424835 4.8312483
-6.3965297 33.770649 4.7241983
-5.5864897 32.366756 4.5144868
-4.8348255 31.015831 4.3145113
-4.234817 30.411608 4.2203107
-3.6237502 29.535158 4.0899549
-3.0338731 28.567133 3.9485426
-2.4877095 27.712898 3.8243663
-2.0126016 27.426792 3.7798617
-1.5531355 27.231936 3.7490261
-1.0935242 26.856909 3.6944556
-0.64627773 26.463606 3.6384234
-0.21123186 25.95298 3.5672731
0.21149591 25.985424 3.5717328
0.63032734 25.810476 3.5486259
1.0408126 25.562313 3.5163703
1.4454612 25.344027 3.4891171
1.8508018 25.221861 3.475986
2.2641184 25.222109 3.4806385
2.6695249 25.13641 3.4743488
3.0875587 25.164961 3.484781
3.4927626 25.082672 3.4807985
3.9128702 25.101408 3.4917753
4.3762126 25.354708 3.5364523
4.838963 25.547434 3.5738475
5.3613486 25.984812 3.6467588
5.8661542 26.263744 3.698817
6.5365739 27.178062 3.8420603
7.1702671 27.813545 3.9478743
7.8094764 28.374172 4.0449591
8.5839682 29.314529 4.198379
9.4407959 30.397051 4.3748474
10.098023 30.737667 4.4469399
10.364728 29.899191 4.3494687
10.59497 29.027739 4.6781125
10.203317 29.433565 4.7161217
9.6669598 29.425541 4.6889997
9.0953274 29.284727 4.6423516
8.7780609 29.977364 4.7288718
8.4320478 30.636164 4.8105054
7.8306608 30.375219 4.7488861
7.2377939 30.093626 4.6858201
6.5734897 29.430605 4.5653148
5.9269228 28.725975 4.4404564
5.3422894 28.204758 4.3458676
4.7600255 27.578424 4.2368593
4.2110238 27.01409 4.139081
3.7356215 26.826723 4.1005116
3.2222469 26.262728 4.0057554
2.7384033 25.784971 3.9255655
2.3014553 25.638039 3.8969758
1.8540087 25.265564 3.835264
1.4448889 25.333992 3.8415716
1.0421357 25.594809 3.8780348
0.62750345 25.694843 3.8911283
0.21084644 25.905628 3.9220095
-0.21372829 26.259706 3.9756155
-0.64864373 26.56049 4.0222187
-1.0773927 26.460718 4.0092344
-1.5608541 27.367268 4.1498919
-2.0498166 27.933943 4.2403188
-2.5370352 28.262383 4.2958755
-3.0189786 28.426884 4.3277764
-3.6258147 29.551985 4.5074534
-4.247426 30.502157 4.6623082
-4.8463874 31.090002 4.7635894
-5.5863357 32.365864 4.9723511
-6.1148901 32.283722 4.9743657
-6.7029099 32.486946 5.0218272
-7.437582 33.29929 5.1654305
-7.9269161 32.958889 5.1319647
-8.6047125 33.377773 5.218308
-9.569025 34.767143 5.4591537
-11.101276 37.911221 5.9804225
-12.676757 40.816055 6.4703512
-13.857909 42.182495 6.721837
-14.795451 42.680523 6.8386736
-15.279229 41.861511 7.3703713
-15.176072 43.7785 7.6633744
-14.077654 42.851379 7.4599781
-13.095453 42.164154 7.302259
-12.344315 42.156235 7.2651219
-11.08643 40.280327 6.9098134
-9.4705324 36.736301 6.2745814
-8.1496525 33.884991 5.7641525
-7.3157625 32.753883 5.550746
-6.7498064 32.714241 5.5246744
-6.1460099 32.448021 5.4620962
-5.5673156 32.255665 5.413743
-5.0212755 32.211926 5.3919678
-4.4982772 32.303604 5.394341
-3.8828018 31.646542 5.2733655
-3.3332019 31.38563 5.2201552
-2.7392571 30.515118 5.0672808
-2.1878204 29.814594 4.9443841
-1.6785111 29.430212 4.8754616
-1.1766738 28.899057 4.7836623
-0.68881303 28.205332 4.6663551
-0.22498466 27.642719 4.5720639
0.21852903 26.849548 4.4408746
0.65400851 26.780167 4.430573
1.0825649 26.587749 4.4010711
1.4971956 26.251112 4.3488059
1.9091281 26.016705 4.3145504
2.3370473 26.034533 4.3232436
2.8074062 26.434706 4.3967023
3.3136244 27.007496 4.5003462
3.8209803 27.439713 4.5821257
4.3193698 27.709137 4.6382442
4.7973256 27.794533 4.6649928
5.2893791 27.925415 4.700789
5.8328314 28.269943 4.7741361
6.4504523 28.879745 4.8942027
7.0125942 29.15728 4.9599247
7.6228232 29.569016 5.050405
8.1386042 29.569994 5.0725293
8.5802727 29.30191 5.0498333
9.0643044 29.184839 5.0544181
9.3721085 28.528034 4.966433
9.7158461 28.027357 4.9061551
9.8595257 27.012793 5.1604862
9.5149546 27.447845 5.213316
9.0179081 27.449875 5.1851311
8.5770864 27.616117 5.1894712
8.3132229 28.389927 5.3087473
8.0360842 29.197506 5.434577
7.6324949 29.606531 5.4868555
7.2366176 30.088734 5.5536518
6.7027855 30.009483 5.5181527
6.2192693 30.142889 5.523335
5.6385651 29.768951 5.4372749
5.0806022 29.435766 5.3606024
4.5376029 29.109123 5.2869639
4.0754714 29.267294 5.3029394
3.6218634 29.519779 5.3372965
3.0901811 29.09733 5.2511253
2.5915506 28.869678 5.2017384
2.073055 28.250626 5.0834432
1.5873816 27.83239 5.0028729
1.1219337 27.554642 4.9490089
0.68001258 27.844975 4.9985042
0.22647423 27.825735 4.9937272
-0.22712736 27.905981 5.0081282
-0.68628156 28.101675 5.0445852
-1.1463735 28.154884 5.0568171
-1.6465881 28.870489 5.1894712
-2.1371086 29.123514 5.2405119
-2.667336 29.713923 5.3538542
-3.1963801 30.097307 5.4315886
-3.8220003 31.150982 5.632225
-4.4348197 31.847895 5.7705183
-4.8726482 31.258469 5.67734
-5.5425816 32.112362 5.8480425
-6.0458941 31.919456 5.8300629
-6.5342188 31.669352 5.8030415
-7.2137504 32.297157 5.9388108
-7.657465 31.838554 5.876626
-8.2210894 31.889696 5.9099846
-9.284627 33.733837 6.2789316
-10.861603 37.092724 6.9361181
-12.55494 40.423836 7.5962281
-13.619323 41.456253 7.8308597
-14.391659 41.515701 7.8852992
-15.335979 42.016994 8.6590805
-14.888846 42.94994 8.800231
-14.226842 43.3055 8.8244591
-13.424168 43.222534 8.7618618
-12.628094 43.125351 8.6993361
-11.141613 40.480827 8.128212
-9.4886446 36.806561 7.358459
-8.0218744 33.35371 6.6411695
-7.1358247 31.948271 6.337358
-6.5088654 31.546471 6.2358112
-6.0109434 31.734934 6.2528934
-5.4358358 31.493906 6.1871471
-4.9076228 31.482834 6.1684594
-4.3738947 31.41037 6.1394973
-3.8421099 31.314886 6.1077991
-3.2881176 30.961115 6.0275593
-2.7758427 30.922678 6.0104828
-2.2029026 30.020124 5.8273096
-1.6794806 29.447208 5.7100353
-1.1655184 28.625084 5.546205
-0.68719929 28.139254 5.4491844
-0.22814725 28.03129 5.4268389
0.22936183 28.180519 5.4557295
0.69086069 28.289179 5.4782176
1.1478384 28.190861 5.4620728
1.5996772 28.047974 5.4387131
2.04758 27.903463 5.4164371
2.5119522 27.982958 5.439085
3.0108674 28.35051 5.5193224
3.5609822 29.023571 5.6608911
4.1095123 29.511757 5.7683926
4.6157169 29.610231 5.801559
5.1040816 29.571802 5.8095398
5.5177011 29.130848 5.7397976
6.0167232 29.161211 5.7643156
6.5491776 29.321754 5.8163543
7.0529833 29.325212 5.8390417
7.4824204 29.024391 5.802629
7.9394913 28.846556 5.7921476
8.3908072 28.654881 5.7803221
8.7461815 28.160564 5.7085724
9.0312233 27.490404 5.6017818
9.3832932 27.068041 5.5461078
9.6606112 26.467813 5.8549871
9.4367342 27.2222 5.9870896
8.9604301 27.274914 5.9658117
8.4766903 27.292868 5.9387689
8.1419954 27.80518 6.020606
7.7223921 28.05777 6.0472775
7.3684664 28.582363 6.1336765
6.9396482 28.853983 6.1669049
6.4941301 29.075298 6.1907911
6.1193967 29.658838 6.292995
5.6198807 29.670309 6.2751861
5.1490269 29.832203 6.2908645
4.6512756 29.838343 6.2753606
4.1508417 29.808556 6.254056
3.6821117 30.01083 6.2830858
3.1253955 29.428913 6.1497889
2.6112423 29.089045 6.0690789
2.0838978 28.398386 5.9171195
1.6072353 28.180496 5.8654909
1.147503 28.182625 5.8612695
0.69434035 28.431664 5.9099293
0.23186053 28.487522 5.9199715
-0.2330099 28.62874 5.9493175
-0.69822198 28.590607 5.9429679
-1.149195 28.224178 5.8699117
-1.6064283 28.166344 5.8625455
-2.0856578 28.422369 5.9221168
-2.5775847 28.7141 5.9908509
-3.1253188 29.42819 6.1496377
-3.7137787 30.268929 6.337122
-4.3441625 31.196856 6.545332
-4.7858686 30.701771 6.4569497
-5.3908272 31.233135 6.5862861
-5.8397107 30.830906 6.5206485
-6.3663239 30.855618 6.546927
-7.0220685 31.438967 6.6940699
-7.4316163 30.899509 6.6040916
-8.1202974 31.498724 6.7595177
-9.3114252 33.831203 7.2916226
-10.667643 36.430347 7.8881979
-12.580228 40.505253 8.8137064
-13.715317 41.748451 9.1315928
-14.444109 41.667004 9.1639948
-15.004311 41.108299 9.7189922
-14.762532 42.58556 10.010109
-14.008082 42.63961 9.9678907
-13.247773 42.654587 9.9196615
-12.335408 42.12582 9.7487011
-11.017181 40.028728 9.2206688
-9.4918976 36.819176 8.4446306
-8.0973196 33.6674 7.6905065
-7.100708 31.79105 7.2345362
-6.357141 30.81111 6.9870601
-5.7639666 30.431013 6.8786755
-5.2017508 30.137672 6.7923269
-4.7856011 30.700052 6.9006019
-4.3119392 30.965448 6.9435582
-3.7709687 30.735052 6.8772187
-3.2155507 30.277819 6.7623
-2.6534128 29.558819 6.591197
-2.1217153 28.913742 6.4387989
-1.6137292 28.294355 6.2941837
-1.1450781 28.12307 6.2511053
-0.69129288 28.306877 6.2886271
-0.23033036 28.299519 6.2853265
0.23101787 28.383987 6.3040872
0.69624913 28.509825 6.3337135
1.1575016 28.428188 6.3189263
1.6140314 28.299656 6.2953629
2.0642872 28.131142 6.2645216
2.5079508 27.938383 6.2298627
2.9628189 27.898083 6.2308054
3.423466 27.902752 6.2434683
3.960057 28.438467 6.3769193
4.5266552 29.038893 6.5272145
5.0192938 29.080563 6.5540791
5.552834 29.316334 6.6267114
6.0292797 29.222067 6.6267114
6.4530263 28.89127 6.5746474
6.862443 28.532974 6.5176706
7.2553716 28.143667 6.4548669
7.6815348 27.909323 6.4289479
8.0694199 27.557329 6.3772807
8.5087385 27.396055 6.3711691
8.9164953 27.14118 6.3448119
9.3216782 26.890299 6.3208003
9.9223394 27.184887 6.8432298
9.9497299 28.702044 7.1834168
9.4859438 28.874542 7.1869888
8.6731148 27.925306 6.9146609
8.073967 27.572859 6.7939448
7.5447521 27.41235 6.7232413
7.1331835 27.669699 6.7569838
6.7795758 28.188427 6.8557982
6.3594017 28.472097 6.8986983
5.9268279 28.725515 6.9358039
5.484971 28.958048 6.9694662
5.0697351 29.372807 7.0484915
4.5487351 29.180538 6.9836588
4.0915265 29.382593 7.0151453
3.5279374 28.754242 6.8505058
2.9958484 28.209091 6.7081194
2.4870195 27.705212 6.5777979
2.0430343 27.841515 6.601388
1.6023115 28.094162 6.6542258
1.1525614 28.306858 6.6992722
0.6918745 28.330692 6.7013593
0.22996898 28.255117 6.6817117
-0.23208556 28.515171 6.7432089
-0.69302064 28.377625 6.7124605
-1.1522827 28.300013 6.6976519
-1.6205466 28.413889 6.7299547
-2.0779564 28.317417 6.7142272
-2.5247624 28.125664 6.6776218
-3.007705 28.320732 6.7346678
-3.5956006 29.305727 6.9818935
-4.201117 30.1696 7.2030444
-4.7059441 30.189047 7.2250204
-5.2483902 30.40789 7.2968769
-5.6805305 29.990509 7.2179537
-6.2417917 30.252047 7.3043866
-6.8128743 30.502369 7.3906264
-7.3846469 30.704218 7.4676723
-8.3397455 32.349964 7.8999128
-9.5365715 34.649227 8.4981813
-10.707863 36.567699 9.010272
-12.190172 39.249371 9.7186432
-13.528253 41.179043 10.249628
-14.150286 40.819412 10.216097
-15.246808 41.772686 11.158883
-14.807819 42.716202 11.34503
-13.917097 42.362656 11.189477
-13.011876 41.895054 11.008559
-12.076961 41.243214 10.784188
-10.859488 39.45578 10.269229
-9.3729944 36.357952 9.4219894
-8.4142399 34.985104 9.0295296
-7.6464338 34.234352 8.8024702
-6.6863494 32.406685 8.3034449
-5.8337483 30.799427 7.8662481
-5.2065744 30.165621 7.6817069
-4.7002273 30.152374 7.6578341
-4.2583146 30.580353 7.7478962
-3.7105377 30.242514 7.6459837
-3.1458201 29.621233 7.4749718
-2.5942123 28.89933 7.2811766
-2.0856764 28.422623 7.1515684
-1.6192881 28.391823 7.1362405
-1.1537036 28.334911 7.1162724
-0.69384372 28.411327 7.1316824
-0.22946726 28.193472 7.0751219
0.22865781 28.094021 7.0501647
0.68139499 27.901579 7.0037274
1.1330557 27.827801 6.9889121
1.5847075 27.785503 6.9838433
2.0468073 27.892933 7.01829
2.5124562 27.988573 7.0517116
2.9407675 27.690445 6.9877338
3.3816795 27.562176 6.9683342
3.826129 27.476686 6.9615455
4.3769674 28.078632 7.1311636
4.9379854 28.609482 7.2854347
5.4098744 28.561575 7.2946949
5.9133954 28.660412 7.3435512
6.3958244 28.635168 7.3627853
6.7671695 28.136843 7.2620182
7.14571 27.718288 7.1830621
7.5515509 27.437052 7.1410918
7.9598641 27.183195 7.1078048
8.343996 26.865623 7.0593486
8.8315773 26.882694 7.1006713
9.4758797 27.335125 7.2599578
10.828345 29.667131 8.3852291
10.719461 30.922491 8.6895752
10.145969 30.883614 8.6310921
8.9617701 28.854706 8.0222359
8.125493 27.748823 7.6769829
7.4832892 27.189037 7.4874182
7.0466971 27.334215 7.4948144
6.5983958 27.435108 7.492033
6.2279134 27.883402 7.585762
5.8260064 28.236866 7.655107
5.4020152 28.520081 7.7070251
5.0477881 29.245649 7.879847
4.5074658 28.915792 7.7701712
3.997401 28.706646 7.6954641
3.4136708 27.822918 7.4426775
2.9232743 27.525728 7.3494744
2.4518983 27.313963 7.2813106
2.0262218 27.612402 7.3511009
1.5814186 27.727837 7.374002
1.1332432 27.832405 7.3959246
0.6772511 27.731897 7.3653111
0.22519657 27.668755 7.3465939
-0.22607093 27.776182 7.3751183
-0.68135405 27.899904 7.4099321
-1.1378691 27.946014 7.4261146
-1.603387 28.113022 7.4764385
-2.0612712 28.090038 7.4782591
-2.5175178 28.04496 7.4761786
-2.9749651 28.012451 7.4794316
-3.5087383 28.597759 7.6499486
-4.1446486 29.764082 7.9789333
-4.6661811 29.933964 8.0437717
-5.2527132 30.432938 8.1997461
-5.6968637 30.07674 8.1276836
-6.2315927 30.202616 8.1880283
-7.2172585 32.312866 8.7908106
-8.0755663 33.576954 9.16926
-9.0944223 35.277363 9.6727591
-9.723238 35.327442 9.7286024
-10.445083 35.6703 9.8685369
-11.850449 38.155544 10.60807
-13.168973 40.085423 11.202737
-14.18925 40.931808 11.502309
-14.910089 40.850155 12.18425
-14.716209 42.451935 12.588885
-13.784109 41.957851 12.374186
-12.946627 41.684967 12.229929
-12.046759 41.140072 12.010935
-10.41751 37.849941 10.999404
-9.2204409 35.76619 10.348864
-8.6517191 35.972507 10.366435
-8.3244019 37.26973 10.699795
-7.5297012 36.494148 10.440558
-6.4195647 33.892262 9.6650095
-5.5260568 32.016624 9.1032772
-4.7760692 30.638905 8.6882925
-4.2780309 30.721941 8.6909389
-3.7346339 30.438908 8.592535
-3.1006348 29.195765 8.2262716
-2.5161014 28.029181 7.8849869
-2.0303817 27.66909 7.7733603
-1.5808551 27.717958 7.7788286
-1.1271756 27.683382 7.7629471
-0.67485708 27.633869 7.7449555
-0.22437419 27.567713 7.7243667
0.22238946 27.323858 7.6560397
0.66898215 27.393301 7.6775317
1.1050193 27.139227 7.6103554
1.5492183 27.163252 7.6231546
2.0043881 27.314863 7.6738439
2.4506848 27.300444 7.6799831
2.9039152 27.343439 7.7043562
3.3112919 26.988485 7.6185222
3.7474201 26.911451 7.6129889
4.2564263 27.305351 7.7429953
4.8411303 28.048326 7.9749722
5.373724 28.370716 8.0904388
5.8655639 28.428589 8.1330938
6.3371596 28.372517 8.1454868
6.6805415 27.776657 8.0045824
7.0725355 27.434443 7.9380922
7.5214314 27.32762 7.9415588
8.0920067 27.634464 8.0679426
8.8480053 28.488413 8.3581991
9.5440311 29.051355 8.5678091
10.254727 29.581871 8.7723398
11.211095 30.715776 9.6450653
11.011974 31.766304 9.9173374
10.473984 31.882065 9.8989334
9.8423128 31.689837 9.7882051
9.3830547 32.043438 9.8489389
8.6805353 31.538992 9.6491785
7.936451 30.785582 9.3779068
6.9853401 29.043962 8.8115673
6.2871537 28.148632 8.5077572
5.8386531 28.298159 8.5230932
5.4634423 28.844385 8.6596756
5.0393295 29.196646 8.739645
4.4863935 28.780611 8.5921097
3.8929427 27.956497 8.3260574
3.337374 27.201065 8.0838223
2.8635049 26.962934 7.9981394
2.4055803 26.797985 7.9365416
1.9786741 26.964443 7.975244
1.5427353 27.049583 7.9919386
1.1033295 27.097727 7.9997959
0.66407007 27.192165 8.0234213
0.2195776 26.97838 7.9582324
-0.21949922 26.96875 7.9553914
-0.65862244 26.969095 7.957602
-1.1019734 27.064421 7.9899631
-1.5573593 27.305992 8.0676966
-2.0018566 27.280363 8.0686827
-2.4379933 27.159063 8.043479
-2.8829715 27.146233 8.0525122
-3.3733571 27.494343 8.1709805
-4.014689 28.830795 8.5864429
-4.6191506 29.632259 8.8463593
-5.4560914 31.611259 9.462429
-7.0984693 34.404102 10.362136
-8.3328962 37.307762 11.27605
-9.1568623 38.072815 11.550806
-9.8821306 38.332893 11.67697
-10.058442 36.545341 11.180843
-10.301164 35.17881 10.812634
-11.765316 37.881439 11.700638
-13.259679 40.361526 12.531687
-14.118782 40.728531 12.715316
-15.377234 42.13002 13.897883
-14.621146 42.177704 13.833262
-13.84083 42.130508 13.742064
-13.268572 42.721554 13.862559
-12.056149 41.172142 13.29435
-10.515959 38.207638 12.280217
-9.3679094 36.338223 11.628818
-8.8139582 36.647072 11.68019
-8.7382107 39.122417 12.422151
-7.9788027 38.670807 12.235891
-7.2521553 38.287945 12.075794
-6.3164945 36.596226 11.50828
-5.3279858 34.179501 10.719605
-4.5164323 32.433979 10.14776
-3.7188823 30.310526 9.463191
-3.0127339 28.368084 8.8402615
-2.4559982 27.359634 8.512414
-1.9689459 26.831873 8.3371344
-1.5267782 26.769798 8.3090229
-1.0848863 26.64476 8.2636356
-0.65147549 26.676443 8.2690773
-0.21571313 26.503572 8.213315
0.2148473 26.397194 8.1803484
0.64107853 26.250713 8.1371107
1.0737523 26.371311 8.1788282
1.5171075 26.600237 8.2563934
1.9424804 26.471214 8.225071
2.3715086 26.418428 8.2195759
2.7932386 26.301304 8.1961975
3.1992927 26.075644 8.1410265
3.6548166 26.246435 8.2118368
4.1730204 26.770294 8.3958807
4.7405367 27.465511 8.6369781
5.3664713 28.332424 8.9358816
5.8917871 28.555685 9.0353498
6.4313517 28.794228 9.1427431
6.856214 28.507076 9.085803
7.4014144 28.710167 9.1877165
8.3985357 30.514404 9.8075552
9.3946762 32.083126 10.359536
10.149277 32.678185 10.603623
10.597236 32.257236 10.521615
10.995399 31.718489 10.402894
11.327852 31.035662 10.734811
11.084692 31.976074 10.996215
10.647201 32.409325 11.08413
10.013341 32.240505 10.969191
9.7776451 33.390976 11.304963
9.1757441 33.338234 11.235045
8.7239313 33.840225 11.354853
7.9130197 32.901112 10.995058
6.8879418 30.838459 10.266919
6.0697198 29.41807 9.7598448
5.5159273 29.121483 9.6303816
5.075954 29.408838 9.6967983
4.4719009 28.687639 9.4337482
3.8480232 27.633915 9.0654373
3.3029261 26.9203 8.8125257
2.8057666 26.419268 8.6324139
2.3227451 25.875206 8.4411697
1.9094549 26.021158 8.47752
1.4880751 26.091198 8.4913206
1.0635262 26.120155 8.4939852
0.64418155 26.377775 8.5732136
0.21321541 26.196692 8.5121031
-0.2122454 26.077513 8.4733782
-0.63234788 25.893211 8.4157228
-1.0560935 25.937609 8.4346228
-1.489545 26.11697 8.4997082
-1.9150037 26.096773 8.5021553
-2.3418179 26.087675 8.5104837
-2.8036804 26.399624 8.6259956
-3.3224232 27.07921 8.8645458
-3.9263253 28.196228 9.2499075
-4.588985 29.438744 9.6807442
-5.7427583 33.272137 10.970621
-6.6228042 34.965267 11.562903
-7.6611819 37.131397 12.318847
-8.7258453 39.067059 13.006432
-9.3643579 38.935551 13.011678
-9.9417238 38.564056 12.939901
-9.9971123 36.322514 12.240752
-10.457333 35.712132 12.09082
-11.349256 36.541824 12.43263
-12.916823 39.317894 13.446892
-13.897079 40.088985 13.786153
-14.589625 39.97216 14.471303
-14.362607 41.431896 14.913155
-13.518022 41.1479 14.729771
-13.125824 42.26194 15.050081
-11.698462 39.95063 14.157295
-9.9230928 36.053577 12.717369
-9.2802 35.997997 12.642799
-9.0862179 37.779087 13.214633
-8.7347155 39.10677 13.627497
-8.0749311 39.136711 13.590322
-7.4776216 39.478298 13.664858
-6.5205669 37.778572 13.038052
-5.4966073 35.261219 12.136781
-4.5978656 33.01878 11.337675
-3.8503418 31.381979 10.752699
-3.131228 29.483831 10.083518
-2.4425454 27.209772 9.2909555
-1.9311049 26.316195 8.9739141
-1.4824036 25.991758 8.853878
-1.0459096 25.687494 8.7432756
-0.6289556 25.754307 8.7613707
-0.20666537 25.39192 8.6358013
0.205468 25.244804 8.5857668
0.61948502 25.366507 8.6294441
1.033216 25.375742 8.6371632
1.4511012 25.442913 8.6669188
1.8608875 25.359304 8.6476116
2.2771161 25.366901 8.6616955
2.6950684 25.376926 8.6789494
3.1352084 25.553326 8.7555742
3.6418593 26.153385 8.9803019
4.1836762 26.838654 9.2377644
4.7717261 27.646217 9.5411968
5.4484606 28.765289 9.9567003
6.2573605 30.327505 10.531302
7.0334373 31.489866 10.973242
8.0063877 33.289322 11.644172
8.7670212 34.00737 11.943675
9.7586975 35.456276 12.50668
10.260857 35.041161 12.417528
10.646939 34.280537 12.207789
11.024352 33.55735 12.01257
11.428053 32.966568 11.866113
11.541236 31.620285 11.963015
11.26894 32.507576 12.227682
10.834178 32.97847 12.336832
10.493526 33.786587 12.573568
10.037841 34.279552 12.69453
9.605854 34.900951 12.865036
9.252182 35.889317 13.172097
8.7687912 36.459278 13.327127
8.0257263 35.93251 13.085084
7.2022262 34.906979 12.667255
6.3326983 33.433647 12.093591
5.4031835 31.304726 11.290207
4.5709324 29.322933 10.54723
3.8926549 27.954432 10.030868
3.3147058 27.016312 9.6735983
2.8110845 26.469343 9.4601088
2.2993059 25.614096 9.1398554
1.8457496 25.153013 8.963419
1.4305897 25.083275 8.9290857
1.0179043 24.999685 8.892252
0.61716598 25.271549 8.9841881
0.20539416 25.235735 8.969079
-0.20334373 24.983809 8.8795414
-0.61225617 25.070501 8.912715
-1.0179307 25.000336 8.8924837
-1.4458896 25.351538 9.024581
-1.8739004 25.536638 9.1001253
-2.2843239 25.447197 9.0803013
-2.7711112 26.092953 9.3255873
-3.3431699 27.248306 9.7566671
-4.1389852 29.72341 10.665628
-4.844624 31.078691 11.178762
-5.723033 33.157852 11.958547
-6.5054469 34.345676 12.42349
-7.7558112 37.590034 13.640899
-8.8231592 39.50275 14.385212
-9.2866497 38.61245 14.114186
-9.8884621 38.357452 14.077952
-10.003024 36.34399 13.396963
-10.249634 35.002834 12.962379
-11.005267 35.434265 13.186747
-12.560294 38.232647 14.302353
-13.413069 38.692757 14.55423
-14.703456 40.284027 15.903794
-14.006293 40.404037 15.859055
-13.067117 39.775379 15.526747
-12.421924 39.995556 15.531699
-10.941173 37.36446 14.438871
-9.7050095 35.261215 13.563258
-9.1623268 35.540768 13.611612
-8.8849783 36.942364 14.091142
-8.6503153 38.728897 14.716926
-8.0669622 39.098091 14.805355
-7.3113914 38.600685 14.569999
-6.3681507 36.895512 13.885405
-5.3746476 34.47884 12.941262
-4.6423764 33.338428 12.483201
-3.9594786 32.271492 12.057966
-3.3656452 31.691118 11.819077
-2.5535226 28.446051 10.591935
-1.9573367 26.673668 9.918807
-1.4472463 25.375324 9.4259977
-1.0134228 24.889622 9.238225
-0.60986578 24.972622 9.2641191
-0.20136091 24.740189 9.1754618
0.19951673 24.513605 9.0914278
0.60102844 24.610752 9.1298761
1.0096937 24.798035 9.2042303
1.4125407 24.766811 9.1999578
1.7942803 24.451612 9.0925179
2.1924093 24.423275 9.0940475
2.5974832 24.458057 9.1215353
3.0969725 25.241688 9.4313393
3.6975858 26.553576 9.9426889
4.2894249 27.51704 10.328225
4.9707212 28.799145 10.838386
5.6473656 29.815416 11.253961
6.379734 30.920612 11.708772
7.317286 32.760704 12.44902
8.4123278 34.977158 13.341541
9.2244587 35.781776 13.703916
9.9623518 36.196217 13.922907
10.558083 36.056194 13.933313
10.934771 35.207287 13.672243
11.259531 34.273212 13.378918
11.649714 33.605999 13.190746
11.757216 32.212021 13.252579
11.487069 33.136814 13.554324
10.826906 32.956337 13.406631
10.56961 34.031555 13.772209
10.523809 35.939152 14.472944
9.9253283 36.061699 14.455313
9.5078821 36.881176 14.719807
8.8753309 36.902252 14.668608
8.1831474 36.63731 14.50842
7.2951183 35.357201 13.952617
6.3077192 33.301769 13.099249
5.4408364 31.522879 12.363045
4.7871466 30.709969 12.012072
4.1459517 29.773438 11.617813
3.4374664 28.016863 10.909104
2.8763745 27.084114 10.526287
2.3325241 25.984142 10.082687
1.7990201 24.516203 9.5004568
1.3735571 24.083292 9.3227959
0.98787498 24.262167 9.3845701
0.60177445 24.6413 9.5261669
0.20247014 24.876472 9.6145353
-0.2010593 24.703131 9.5475397
-0.59975582 24.558641 9.4942112
-0.99883729 24.531401 9.4887094
-1.4168376 24.842152 9.6165552
-1.8242618 24.860186 9.6337557
-2.2594309 25.169891 9.7667313
-2.8170986 26.525972 10.309363
-3.6110969 29.432028 11.460135
-4.4774151 32.153786 12.546642
-5.0684538 32.514576 12.717937
-5.677187 32.892235 12.900096
-6.3067961 33.296894 13.097332
-7.104239 34.432064 13.587543
-8.2370043 36.878437 14.603906
-8.8847647 36.941475 14.6842
-9.6046495 37.256538 14.869618
-9.8021441 35.614132 14.275906
-10.013884 34.197739 13.771666
-10.66857 34.350182 13.901154
-11.706745 35.634502 14.496108
-12.701392 36.639778 14.987182
-13.403504 36.722466 15.725267
-12.816283 36.971207 15.740355
-11.928007 36.30801 15.373295
-10.939103 35.221233 14.835773
-10.022115 34.225849 14.345876
-9.2327271 33.545269 13.995756
-8.7014179 33.752899 14.021425
-8.2622595 34.353195 14.213039
-7.9121137 35.423843 14.600779
-7.1918678 34.856777 14.316895
-6.492733 34.278553 14.034125
-5.7848577 33.516052 13.681579
-5.1863151 33.270668 13.545152
-4.6969929 33.730648 13.699473
-4.0388708 32.918571 13.341184
-3.4330146 32.325474 13.076431
-2.7557456 30.698801 12.398612
-2.0552268 28.007668 11.29671
-1.4656763 25.698467 10.354314
-1.0198277 25.046925 10.083772
-0.60189915 24.646406 9.9172659
-0.20077659 24.668396 9.9234838
0.19781789 24.304874 9.7772484
0.60534936 24.787685 9.9741135
0.98918962 24.294455 9.7808313
1.3730762 24.074862 9.7001371
1.7412195 23.728525 9.5707455
2.1339493 23.772036 9.6010351
2.5651803 24.153894 9.7708302
3.1607213 25.761269 10.440483
3.7508385 26.936001 10.939874
4.5280972 29.048143 11.826077
5.1876268 30.055841 12.269087
5.7622013 30.421694 12.455072
6.3078151 30.572042 12.557005
7.0916686 31.750576 13.086754
8.0381737 33.421482 13.827559
8.9911318 34.876698 14.488268
9.6063929 34.902908 14.562191
10.364834 35.396244 14.836452
10.739697 34.579197 14.565336
11.021784 33.54953 14.205317
11.286344 32.557781 13.861356
11.543755 31.627184 14.080646
11.303995 32.6087 14.433784
10.617955 32.320301 14.227734
10.344174 33.30571 14.585459
9.9028721 33.81863 14.73753
9.6544914 35.077667 15.215688
9.0368099 35.053886 15.139554
8.4875326 35.289845 15.179778
7.746654 34.683056 14.862556
6.8913374 33.400196 14.262855
6.046936 31.924959 13.589047
5.2861552 30.626692 12.998081
4.753233 30.492411 12.906542
4.225759 30.346561 12.813993
3.6333497 29.613398 12.477782
2.969466 27.96067 11.759469
2.3732765 26.438122 11.101409
1.8011963 24.54586 10.293169
1.3521675 23.708258 9.9313784
0.97328025 23.903721 10.005295
0.58807498 24.080338 10.073879
0.19928533 24.485174 10.240526
-0.19997373 24.569752 10.2759
-0.59878612 24.518932 10.257363
-1.0040247 24.658804 10.321348
-1.4128917 24.772968 10.377385
-1.8412642 25.091887 10.522142
-2.3245451 25.895258 10.87346
-2.95222 27.798281 11.691173
-3.8109827 31.061186 13.087816
-4.564959 32.782467 13.842567
-5.1149297 32.812725 13.888663
-5.8281226 33.76672 14.33072
-6.2647481 33.074902 14.078527
-6.7832499 32.876331 14.039147
-7.4258475 33.24675 14.247063
-7.9192166 32.926876 14.163357
-8.6388102 33.51004 14.472776
-9.0457745 32.866013 14.256336
-9.4305334 32.205578 14.034592
-9.9371605 31.995224 14.011561
-10.512619 31.999668 14.086587
-11.319193 32.652538 14.453189
-11.531933 31.594797 14.609118
-10.754409 31.023304 14.262025
-10.049288 30.589321 13.985454
-9.6205139 30.9757 14.088636
-9.0665445 30.962543 14.013664
-8.5956507 31.230581 14.069782
-8.0389366 31.183125 13.987593
-7.5445342 31.369005 14.014023
-7.0043235 31.359518 13.956995
-6.5999503 31.987934 14.186982
-6.0709014 32.051483 14.169457
-5.5516033 32.164635 14.177649
-4.9630947 31.83869 13.99651
-4.5573664 32.727943 14.352916
-3.9378922 32.095554 14.045605
-3.4120677 32.128235 14.03374
-2.8717723 31.991327 13.951669
-2.3042231 31.400873 13.675997
-1.6734884 29.342144 12.765804
-1.0807184 26.542397 11.538543
-0.62142479 25.445936 11.056026
-0.20179616 24.793667 10.769766
0.19906321 24.457882 10.62391
0.5974192 24.462961 10.628932
0.98470122 24.184219 10.513393
1.3457115 23.59506 10.265436
1.7412657 23.729153 10.334739
2.1896696 24.392754 10.637872
2.7714145 26.095806 11.398751
3.4296396 27.95307 12.232779
4.0870171 29.350208 12.871603
4.7109809 30.221357 13.28552
5.1772795 29.995892 13.221702
5.6140041 29.639282 13.103062
6.0592403 29.367279 13.024694
6.6401286 29.728958 13.231291
7.3335958 30.491957 13.622204
8.0266619 31.135509 13.966234
8.7074709 31.636858 14.252815
9.2775249 31.68305 14.339767
9.8424902 31.690411 14.413707
10.304737 31.36689 14.340959
10.641804 30.698471 14.112693
10.986546 30.100563 14.441591
10.524426 30.359869 14.481883
9.9877119 30.401888 14.422458
9.4172001 30.321079 14.3095
8.8410006 30.192305 14.178926
8.3733425 30.422869 14.221305
7.9190302 30.718004 14.297112
7.3581839 30.594189 14.181853
6.8406224 30.626602 14.143384
6.1279941 29.700506 13.667833
5.6151352 29.645252 13.598539
5.0950594 29.519529 13.501033
4.6258125 29.674995 13.535903
4.1882162 30.076954 13.686338
3.6824205 30.013346 13.62831
3.1707218 29.855709 13.5315
2.5864882 28.813284 13.038231
1.9856894 27.060047 12.228629
1.4565027 25.537622 11.528393
0.99064237 24.330133 10.974565
0.58260047 23.856167 10.75507
0.19638391 24.128691 10.87505
-0.19649047 24.141781 10.88095
-0.59720147 24.454046 11.024611
-1.0045854 24.672575 11.129029
-1.4676769 25.733545 11.616838
-2.0007203 27.264881 12.321196
-2.6083441 29.056759 13.148405
-3.2574761 30.672592 13.901735
-3.8662839 31.511913 14.308771
-4.4116812 31.681728 14.41658
-4.8905582 31.373363 14.310594
-5.4681573 31.681168 14.489678
-5.9148769 31.227747 14.324443
-6.4155231 31.09407 14.309135
-7.0935369 31.758942 14.6663
-7.5146222 31.244637 14.483367
-7.9273047 30.750101 14.312051
-8.2562933 29.997591 14.022508
-9.0165138 30.791689 14.460409
-9.3721189 30.17593 14.240999
-9.7477646 29.671505 14.075969
-9.748723 28.122198 13.414497
-9.7487431 26.709274 13.284702
-9.0356007 26.065048 12.889408
-8.4353466 25.676598 12.627736
-8.3303385 26.82165 13.12244
-8.8054523 30.070908 14.640062
-8.3568449 30.362928 14.714051
-7.8928161 30.61632 14.772623
-7.0083661 29.139702 14.003238
-6.7899289 30.399639 14.553661
-6.3663406 30.8557 14.720431
-5.814147 30.695942 14.597127
-5.2449093 30.387724 14.408045
-4.7352905 30.377306 14.364653
-4.2783928 30.724541 14.493996
-3.768456 30.714573 14.458438
-3.2592425 30.689224 14.419619
-2.7422009 30.547911 14.330347
-2.2218745 30.278666 14.185195
-1.6772583 29.408245 13.762797
-1.1427647 28.066252 13.124311
-0.64594489 26.449978 12.361957
-0.20816813 25.576557 11.950578
0.20232067 24.858109 11.614884
0.60453457 24.754322 11.569455
0.9969644 24.485401 11.449839
1.439455 25.238716 11.811495
1.9142139 26.08601 12.220985
2.3959825 26.691065 12.52106
3.0100522 28.342834 13.317145
3.6187606 29.49449 13.884102
4.1964297 30.135937 14.216328
4.6555939 29.866045 14.12289
5.0511637 29.265207 13.875814
5.5113096 29.097103 13.836816
5.8484659 28.34572 13.522987
6.2350249 27.915241 13.364269
6.5156889 27.091227 13.018832
6.9141631 26.820116 12.940924
7.2822866 26.458735 12.822056
7.6101894 25.989044 12.652802
8.0449982 25.902924 12.672956
8.5847902 26.131495 12.851454
9.1587791 26.420382 13.065124
9.7313604 26.66165 13.736383
9.5792971 27.633453 14.154848
8.9465475 27.232658 13.873106
7.8215308 25.183414 12.762607
7.1814847 24.525003 12.368047
6.7391205 24.485249 12.291044
6.3245392 24.532957 12.261685
6.029233 25.068617 12.478702
5.7288423 25.648977 12.719485
5.5199518 26.753511 13.220917
5.2803817 27.877913 13.732269
4.886982 28.31398 13.906039
4.5259042 29.034075 14.221634
4.1575441 29.856686 14.589485
3.7617397 30.659832 14.950038
3.2414246 30.521448 14.854863
2.7452219 30.581566 14.860402
2.1592779 29.425629 14.279728
1.5956821 27.977928 13.562783
1.0942595 26.874968 13.017743
0.63696617 26.082319 12.627104
0.20931037 25.716898 12.446895
-0.20641388 25.361023 12.274652
-0.62256467 25.492611 12.341611
-1.0411263 25.570015 12.385648
-1.4922888 26.165079 12.683972
-2.0465508 27.889435 13.534242
-2.5501323 28.408283 13.804346
-3.0975542 29.166759 14.195532
-3.6081774 29.408234 14.339746
-4.1491838 29.79665 14.560148
-4.5536137 29.211834 14.308704
-5.0335746 29.1633 14.323172
-5.454072 28.794916 14.183972
-6.0474749 29.310253 14.484395
-6.6797199 29.906214 14.830675
-7.0546565 29.332169 14.60102
-7.4189172 28.778061 14.383408
-7.7791171 28.263868 14.187826
-8.6741257 29.622421 14.938693
-9.2750292 29.863323 15.13432
-9.5257292 28.995646 14.771223
-8.8033361 25.395033 13.00825
-8.9538689 24.531504 13.082119
-8.5651217 24.707855 13.100071
-8.1476068 24.800739 13.077262
-8.2164688 26.455019 13.877185
-8.8255615 30.139578 15.7325
-8.468215 30.767569 15.986226
-7.8426523 30.421736 15.738117
-6.5870771 27.388046 14.11135
-6.169446 27.621635 14.178079
-5.3934588 28.474909 14.518205
-4.9488478 28.672417 14.575898
-4.3467331 27.884676 14.137599
-3.9286854 28.213177 14.269833
-3.4059672 27.760132 14.010788
-2.9546213 27.820894 14.015323
-2.4830456 27.66094 13.912537
-2.0441325 27.856482 13.992296
-1.5450727 27.090567 13.593143
-1.0540043 25.886301 12.978554
-0.60456491 24.755564 12.40506
-0.19657546 24.152225 12.09952
0.19982821 24.551872 12.29973
0.60342592 24.708923 12.381689
1.0227644 25.119049 12.593878
1.4858845 26.05279 13.072421
1.9906429 27.12755 13.626154
2.5358715 28.24942 14.208522
3.1466358 29.628912 14.926147
3.7019167 30.172249 15.228206
4.1808882 30.024328 15.185887
4.7088313 30.207569 15.31531
5.2221985 30.256144 15.381001
5.7800479 30.515913 15.55883
6.1579456 29.845671 15.26619
6.3141904 28.269678 14.510717
6.4146667 26.67119 13.742
6.4995074 25.21166 13.042783
6.612246 24.024275 12.482543
6.4774871 22.120829 11.546808
6.7786222 21.825502 11.448736
7.3914504 22.499052 11.863597
8.2625217 23.834946 12.637256
10.155891 27.824764 15.34798
10.003619 28.857498 15.825706
9.2318516 28.101103 15.326443
7.5077701 24.173182 13.115744
6.6608481 22.747013 12.281482
6.0308814 21.912004 11.776078
5.7280588 22.219204 11.889486
5.7810698 24.036793 12.810022
5.7185411 25.602858 13.593218
5.5750813 27.020708 14.295912
5.5131774 29.106966 15.350175
5.2036672 30.148777 15.852821
4.7143202 30.242781 15.859796
4.2303758 30.379715 15.893386
3.6910071 30.083332 15.704814
3.1774619 29.919174 15.590048
2.6693845 29.736742 15.470295
2.1954327 29.918327 15.54411
1.6410124 28.772726 14.933054
1.0954849 26.90506 13.95263
0.62805319 25.717356 13.329633
0.20308279 24.951746 12.929381
-0.19558749 24.030836 12.452188
-0.57938284 23.724413 12.296665
-0.94541776 23.219419 12.041303
-1.3367836 23.438526 12.164602
-1.8517382 25.234621 13.110684
-2.3412728 26.081604 13.568739
-2.8358083 26.702143 13.913742
-3.2931485 26.840609 14.011971
-3.7694879 27.069927 14.161844
-4.1777339 26.800531 14.054626
-4.6984353 27.221588 14.313647
-5.089612 26.870741 14.170855
-5.6115303 27.197365 14.389376
-6.2100067 27.803232 14.761453
-8.7422791 29.855167 16.119289
-9.288043 29.905224 16.225801
-9.4102468 28.644125 15.622609
-8.7668333 25.289734 13.869113
-8.8788023 24.325842 13.869898
-8.5209351 24.580391 13.934098
-8.1460533 24.796009 13.979301
-8.071084 25.986914 14.574695
-8.443367 28.834373 16.092464
-8.3403215 30.302893 16.83404
-7.6415935 29.641825 16.395521
-5.6056132 25.097261 13.773547
-5.255806 25.473278 13.931107
-4.8854218 25.792713 14.060445
-4.4350753 25.695742 13.966374
-3.985311 25.566122 13.858823
-3.6350038 26.104155 14.116531
-3.1855152 25.963348 14.010487
-2.7342587 25.745945 13.867313
-2.2760129 25.354612 13.63477
-1.8424695 25.108311 13.484403
-1.4036391 24.610735 13.203159
-0.92895037 22.814981 12.23004
-0.54044586 22.130033 11.856584
-0.1789223 21.983271 11.774833
0.18043754 22.169439 11.87455
0.54429954 22.28783 11.941128
0.91722113 22.526911 12.075619
1.4137077 24.787275 13.297869
1.9634206 26.756577 14.369602
2.5303519 28.187931 15.158423
3.0772114 28.975208 15.606664
3.5434313 28.880522 15.584669
4.0622807 29.172567 15.775859
4.6039081 29.534477 16.009981
5.1046257 29.574953 16.074837
5.7086906 30.139183 16.429848
6.2874832 30.473501 16.665684
6.7508125 30.224508 16.587416
6.7536068 28.08045 15.46903
6.69064 25.953068 14.35519
6.6218443 24.059149 13.365479
6.3826971 21.797117 12.164971
6.6395636 21.377769 11.989668
7.3369665 22.333206 12.590841
8.3493662 24.085463 13.653534
10.663272 29.21487 17.20821
10.590933 30.551725 17.891722
9.6656284 29.42149 17.135416
7.7302766 24.889597 14.420787
6.6513615 22.714615 13.096153
6.0717125 22.060356 12.660274
5.7940145 22.475046 12.842429
5.865963 24.389765 13.880112
5.9961615 26.84581 15.220269
6.164659 29.87821 16.88036
5.8446188 30.856819 17.37719
5.2958951 30.683123 17.228539
4.694303 30.114368 16.864038
4.1614032 29.884399 16.695108
3.6430798 29.692701 16.552689
3.1194179 29.372627 16.343784
2.6256073 29.249067 16.249096
2.1132312 28.798124 15.977349
1.5835878 27.765869 15.388308
1.0618355 26.078634 14.441721
0.57423317 23.513546 13.014336
0.17870978 21.957159 12.149682
-0.16700606 20.519182 11.353998
-0.48808241 19.985868 11.061827
-0.83901083 20.60607 11.411146
-1.1451772 20.078989 11.128111
-1.6078215 21.910639 12.156137
-1.9902879 22.171658 12.317295
-2.4289603 22.871237 12.726221
-2.8540282 23.261585 12.967557
-3.3489234 24.049717 13.435526
-3.784389 24.277191 13.595221
-4.1230512 23.887951 13.413056
-4.4184098 23.327112 13.136792
-4.8572607 23.541653 13.30038
-5.2653131 23.573681 13.36513
-5.521131 22.956007 13.064166
-7.4786177 27.172064 15.593845
-8.5279541 29.123241 16.791058
-9.0183525 29.036888 16.823687
-9.0899 27.669014 16.114754
-8.6617422 24.986578 14.632657
-8.9985905 24.654032 14.993604
-8.5916853 24.784483 14.985893
-8.103508 24.666504 14.832829
-7.9437761 25.577015 15.300559
-8.2465687 28.1623 16.764587
-8.083909 29.371269 17.403624
-7.6834316 29.804117 17.583658
-4.4546638 21.590389 12.594297
-4.1076427 21.686407 12.60963
-3.7300746 21.611141 12.528899
-3.3798974 21.682341 12.536617
-3.0491011 21.896595 12.630124
-2.7202585 22.171303 12.761345
-2.3334601 21.972002 12.623095
-1.9483109 21.704037 12.449275
-1.5696269 21.390141 12.252947
-1.1659859 20.44384 11.698453
-0.80769318 19.83691 11.342126
-0.55490428 22.722073 12.984887
-0.14967392 18.389673 10.506284
0.1968552 24.186596 13.81815
0.48981109 20.056654 11.461691
0.82139313 20.17338 11.534509
1.272355 22.308863 12.765663
1.8454332 25.148701 14.405968
2.3236816 25.885639 14.847812
2.957561 27.848574 15.999232
3.4988821 28.517427 16.414043
4.0090623 28.79039 16.60652
4.495563 28.839434 16.67481
5.0227833 29.100779 16.87096
5.5850472 29.486403 17.144962
6.1457253 29.786444 17.375292
6.592741 29.516796 17.278316
6.9455848 28.878666 16.96871
6.8786569 26.682384 15.741917
6.7527018 24.534594 14.537704
6.7683167 23.114023 13.759424
6.8680491 22.113436 13.228594
7.646914 23.276665 13.997069
8.7502346 25.241852 15.262441
10.791552 29.566326 18.555809
10.959611 31.615252 19.727129
10.10111 30.747066 19.080269
8.1039696 26.092798 16.108036
7.0329175 24.017643 14.754333
6.4029188 23.263725 14.225275
6.0710616 23.549715 14.337818
5.9708409 24.825832 15.053587
5.9243369 26.52424 16.022842
5.9540501 28.857452 17.371443
5.5709648 29.412056 17.648369
5.1011014 29.554535 17.681692
4.5575256 29.236929 17.444979
4.0376987 28.996038 17.259737
3.5183055 28.675737 17.03273
3.0302494 28.53301 16.916412
2.5485871 28.391069 16.805435
2.0097718 27.388231 16.190317
1.4777381 25.909954 15.300199
0.97672534 23.988333 14.154188
0.53005165 21.704414 12.799787
0.1609357 19.77335 11.657887
-0.18431053 22.645294 13.351116
-0.33994207 13.919856 8.2089844
-0.46095553 11.321048 6.6799245
-1.1823486 20.730736 12.241796
-1.757184 23.946081 14.155519
-1.8461545 20.566023 12.17358
-2.1650233 20.385992 12.086275
-2.3852077 19.440491 11.547206
-2.8453753 20.433573 12.162975
-3.2277262 20.706148 12.354864
-3.5403979 20.512201 12.271904
-3.747246 19.783684 11.870975
-4.1002426 19.872618 11.962805
-4.6902637 20.99909 12.685194
-5.0773005 21.110628 12.800806
-5.9042583 22.902681 13.943884
-7.8402395 28.485945 17.41855
-8.6577425 29.566471 18.163046
-9.0072098 29.001011 17.903381
-8.5949287 26.162355 16.235201
-8.5362148 24.624468 15.365053
-9.1218586 24.991756 16.178518
-8.9249554 25.745871 16.570446
-8.40308 25.578381 16.372435
-8.0362549 25.874773 16.476231
-8.1281366 27.757851 17.588728
-8.3484659 30.332483 19.131489
-7.9538393 30.853031 19.375578
-7.2258034 30.043772 18.791006
-5.5264125 24.742664 15.417094
-4.3686223 21.173372 13.147021
-3.7865732 19.991312 12.373139
-3.3180385 19.223906 11.863169
-3.6642163 23.506271 14.467111
-2.9165542 20.944733 12.859668
-1.3685751 11.15449 6.8340597
-1.1868327 11.175287 6.8340597
-1.0047756 11.193125 6.8340597
-0.82245243 11.207997 6.8340597
-0.63991135 11.219899 6.8340597
