# .PCD v0.7 - Point Cloud Data file format
VERSION 0.7
FIELDS x y z
SIZE 4 4 4
TYPE F F F
COUNT 1 1 1
WIDTH 480
HEIGHT 1
VIEWPOINT 0 0 0 1 0 0 0
POINTS 480
DATA ascii
-10.529993 40.845959 0.57619619
-11.193446 40.669151 0.57619619
-11.849094 40.465042 0.57596093
-12.506173 40.266815 0.57596093
-13.32118 40.548729 0.58301795
-13.985065 40.3428 0.58325315
-14.629871 40.082424 1.1659271
-13.975513 40.315243 1.1659271
-13.333572 40.586449 1.1673384
-12.655862 40.748779 1.1659271
-12.010272 41.015469 1.1678088
-11.181177 40.624573 1.1513441
-10.527046 40.83453 1.1522849
-9.8569641 40.98373 1.1518145
-9.1885672 41.138741 1.1518145
-8.5212154 41.299713 1.1522849
-7.8478522 41.432941 1.1522849
-7.1694822 41.538227 1.1518145
-6.4924159 41.649422 1.1518145
-5.8160043 41.766632 1.1522849
-5.1333032 41.83868 1.1518145
-4.4516168 41.916691 1.1518145
-3.7702897 42.000744 1.1522849
-3.0937049 42.159565 1.1551074
-2.4080458 42.221523 1.1555778
-1.7211889 42.272327 1.1560482
-1.0324755 42.277531 1.1555778
-0.3441889 42.288734 1.1555778
0.34502959 42.392029 1.1584003
1.0354177 42.398006 1.1588707
1.7260916 42.392738 1.1593411
2.42275 42.47934 1.1626341
3.1138637 42.434277 1.1626341
3.8149271 42.498001 1.1659271
4.5061603 42.430275 1.1659271
5.1961989 42.351307 1.1659271
5.9014826 42.380482 1.1692201
6.5931778 42.295818 1.1696905
7.3012495 42.301655 1.1729835
7.9856205 42.160294 1.1725131
8.6986351 42.159615 1.1762766
9.3987255 42.079651 1.1781583
10.11059 42.038269 1.1814514
10.810698 41.934814 1.1833332
11.254272 40.890148 1.1588707
11.952214 40.8172 1.1621636
12.620118 40.63369 1.1626341
13.7742 41.927692 1.2059149
14.477388 41.763004 1.2077967
15.195379 41.631783 1.8170581
14.515728 41.873604 1.8170581
13.83223 42.104328 1.8170581
13.109336 42.208851 1.812119
12.381878 42.284515 1.8064743
11.417978 41.484943 1.7641405
10.61664 41.182064 1.74368
10.033442 41.717495 1.7592018
9.244297 41.388252 1.7387413
8.7328281 42.325336 1.7719016
8.0171223 42.326611 1.7662572
7.3154044 42.383667 1.763435
6.608655 42.395107 1.7592018
5.9200892 42.514103 1.7599072
5.2084441 42.451111 1.7535574
4.5167789 42.530266 1.7535574
3.8116088 42.461037 1.7479131
3.1212265 42.534615 1.7486187
2.4284787 42.579784 1.7486187
1.7301869 42.493317 1.74368
1.0382955 42.515846 1.74368
0.34472859 42.355045 1.7366247
-0.34500867 42.389458 1.7380358
-1.0349346 42.378227 1.7380358
-1.7245864 42.355766 1.7380358
-2.4069223 42.201824 1.7330972
-3.0935211 42.157059 1.7330972
-3.7793002 42.10112 1.7330972
-4.4622607 42.016914 1.7323916
-5.1476727 41.955795 1.7330972
-5.8132911 41.747147 1.7281586
-6.4920378 41.646996 1.7281586
-7.169064 41.535805 1.7281586
-7.8409886 41.396706 1.727453
-8.5172396 41.280449 1.7281586
-9.1842813 41.119549 1.727453
-9.8523655 40.964611 1.727453
-10.517839 40.798817 1.727453
-11.180528 40.622211 1.727453
-11.840252 40.434845 1.727453
-12.537671 40.368233 1.7330972
-13.31661 40.534817 1.7493242
-14.014083 40.426506 1.7542629
-14.660664 40.166786 2.3385081
-14.004928 40.400097 2.3385081
-13.340115 40.606365 2.3375676
-12.677399 40.818119 2.3375676
-12.011324 41.019062 2.3375676
-11.209729 40.728313 2.3102932
-10.545311 40.90538 2.3102932
-9.8821201 41.088326 2.3112338
-9.2082691 41.226948 2.3102932
-8.5325251 41.35453 2.3093526
-7.8358665 41.369663 2.3027694
-7.1614556 41.491726 2.3027694
-6.485148 41.602795 2.3027694
-5.8260951 41.8391 2.3102932
-5.14431 41.928387 2.3102932
-4.4593453 41.989468 2.3093526
-3.7768312 42.073616 2.3102932
-3.0915 42.129517 2.3102932
-2.4043708 42.157089 2.3093526
-1.7185625 42.207821 2.3102932
-1.0342585 42.35054 2.3168766
-0.34478328 42.361767 2.3168766
0.34478328 42.361767 2.3168766
1.0346783 42.367733 2.3178172
1.7290566 42.465553 2.3244007
2.4200377 42.431786 2.3244007
3.1091192 42.369621 2.3234601
3.8106563 42.450424 2.3309841
4.5011153 42.382774 2.3309841
5.2050414 42.423378 2.3375676
5.8972478 42.350067 2.3385081
6.6043377 42.367409 2.3450918
7.2930756 42.254299 2.3450918
7.9894824 42.180683 2.3479133
8.6888971 42.112419 2.3516753
9.3882036 42.032543 2.3554375
9.8780985 41.071606 2.3102932
10.571068 41.005291 2.3159361
11.241673 40.844372 2.3168766
12.339957 42.141357 2.4015241
13.059963 42.049885 2.4081082
13.742678 41.831738 2.4081082
14.466814 41.732502 2.4156327
15.172692 41.569626 3.0269234
14.488427 41.794849 3.025748
13.811578 42.041466 3.0269234
13.125441 42.260704 3.0269234
12.397194 42.336819 3.0175204
11.674518 42.417027 3.0092926
10.952523 42.484959 3.001065
10.227401 42.523949 2.991662
9.3391132 41.812763 2.9305441
8.5288267 41.336605 2.8870583
8.030735 42.398476 2.9517
7.3190947 42.405048 2.9434729
6.6199603 42.467628 2.9399469
5.9088807 42.433609 2.9305441
5.2153153 42.507111 2.929369
4.5100355 42.466766 2.9211416
3.8197441 42.551662 2.922317
3.1215963 42.539654 2.9176159
2.427788 42.567673 2.9164405
1.7324969 42.550049 2.9129145
1.0367453 42.45237 2.9046874
0.34561229 42.463623 2.9046874
-0.34547246 42.446442 2.9035122
-1.0333894 42.314953 2.8952851
-1.7220114 42.29253 2.8952851
-2.4101772 42.258896 2.8952851
-3.0977044 42.214069 2.8952851
-3.784411 42.158054 2.8952851
-4.4574127 41.971268 2.8870583
-5.139987 41.893154 2.8870583
-5.81883 41.786922 2.8858829
-6.4982233 41.686676 2.8858829
-7.1788173 41.592312 2.8870583
-7.8548627 41.469955 2.8870583
-8.5288267 41.336605 2.8870583
-9.200532 41.192307 2.8870583
-9.8697987 41.037094 2.8870583
-10.532161 40.854366 2.8858829
-11.20031 40.694092 2.8870583
-11.861202 40.506393 2.8870583
-12.518952 40.307961 2.8870583
-13.334268 40.588566 2.922317
-13.987532 40.349915 2.9211416
-14.680374 40.220791 3.5168598
-13.995647 40.373322 3.5098104
-13.315208 40.530552 3.5041709
-12.65373 40.741913 3.5041709
-11.993723 40.958954 3.5055807
-11.202465 40.70192 3.467514
-10.525623 40.82901 3.4632845
-9.8596563 40.994926 3.4632845
-9.187336 41.133228 3.4618747
-8.5200634 41.294132 3.4632845
-7.8467913 41.427341 3.4632845
-7.1714406 41.549576 3.4632845
-6.4941897 41.660801 3.4632845
-5.8104835 41.726986 3.460465
-5.1326151 41.833073 3.4618747
-4.4510198 41.911072 3.4618747
-3.7820568 42.131828 3.4745634
-3.0945215 42.170689 3.4731536
-2.4086781 42.232609 3.4745634
-1.720242 42.249069 3.4731536
-1.0327467 42.288631 3.4745634
-0.34525716 42.419987 3.4844325
0.34511745 42.402824 3.4830227
1.0356801 42.408749 3.4844325
1.7258284 42.386272 3.4844325
2.4213839 42.455387 3.4928918
3.113364 42.427467 3.4943016
3.8035419 42.37117 3.4943016
4.5054011 42.423126 3.5041709
5.1974139 42.36121 3.5055807
5.9004416 42.373005 3.51404
6.5893636 42.271351 3.51404
7.2998958 42.293816 3.5253193
7.9905381 42.186256 3.5267291
8.6969547 42.15147 3.5351887
9.3968678 42.071335 3.5408282
9.9760561 41.478893 3.5041709
10.555617 40.945354 3.4731536
11.630634 42.257587 3.6000459
12.316919 42.062679 3.6000459
13.035581 41.971378 3.6099157
13.754523 41.867798 3.6197855
14.473539 41.7519 3.6296556
15.185712 41.605293 4.247685
14.500876 41.830761 4.2460403
13.812726 42.04496 4.2443962
13.090935 42.149605 4.2328858
12.369406 42.24192 4.2213755
11.648349 42.321949 4.2098656
10.957932 42.505943 4.2098656
10.216503 42.478638 4.1901336
9.5087776 42.572376 4.1835566
8.637886 41.865181 4.0997
7.9297795 41.865479 4.0865459
7.323101 42.428257 4.1292958
6.6104026 42.406319 4.1161418
5.9121876 42.457355 4.1112094
5.2057128 42.428848 4.0997
4.5144105 42.507961 4.0997
3.8219118 42.575809 4.0997
3.1196179 42.512691 4.0881906
2.4262509 42.540722 4.0865459
1.7286134 42.45467 4.0750365
1.0373513 42.477184 4.0750365
0.34581432 42.488441 4.0750365
-0.34497714 42.385582 4.0651717
-1.0340029 42.340076 4.0618834
-1.7230338 42.317635 4.0618834
-2.4116082 42.283985 4.0618834
-3.0907609 42.119446 4.050374
-3.7759283 42.063557 4.050374
-4.4600949 41.996525 4.050374
-5.1389046 41.884331 4.0470858
-5.8223376 41.812115 4.0487299
-6.5047812 41.728745 4.050374
-7.1627259 41.499084 4.0388646
-7.837256 41.376999 4.0388646
-8.5062456 41.227161 4.0372205
-9.1799088 41.099976 4.0388646
-9.8476753 40.945107 4.0388646
-10.512833 40.779392 4.0388646
-11.207049 40.718575 4.050374
-11.86834 40.530766 4.050374
-12.638353 40.692406 4.0865459
-13.336484 40.595314 4.0980554
-14.001101 40.389057 4.0997
-14.63022 40.083378 4.6813064
-13.975846 40.316204 4.6813064
-13.323112 40.554611 4.6831846
-12.661242 40.766098 4.6831846
-11.996017 40.966785 4.6831846
-11.191323 40.661438 4.6268387
-10.527996 40.838211 4.6268387
-9.8618793 41.004166 4.6268387
-9.1931496 41.159256 4.6268387
-8.5219841 41.30344 4.6268387
-7.8517461 41.453499 4.6287169
-7.1759691 41.575809 4.6287169
-6.4930167 41.653275 4.6249604
-5.8165288 41.770401 4.6268387
-5.1358628 41.859543 4.6268387
-4.4538364 41.937592 4.6268387
-3.7706296 42.004532 4.6268387
-3.085171 42.043266 4.6249604
-2.4082241 42.224648 4.639986
-1.7213124 42.27536 4.6418643
-1.03297 42.297775 4.6418643
-0.34435371 42.308987 4.6418643
0.34532905 42.428822 4.6550117
1.0358957 42.41758 4.6550117
1.7261878 42.395096 4.6550117
2.4160225 42.361385 4.6550117
3.1139874 42.435963 4.668159
3.8058341 42.396706 4.6700373
4.5080757 42.448311 4.6831846
5.1984081 42.369312 4.6831846
5.887363 42.279083 4.6831846
6.5932164 42.296062 4.6963325
7.2807941 42.183144 4.6963325
7.9791875 42.126331 4.7038455
8.5946302 41.655537 4.6662807
9.2752495 41.526833 4.668159
9.9819784 41.503517 4.6831846
10.908364 42.313667 4.794003
11.595657 42.130505 4.794003
12.313558 42.051197 4.8071513
13.037017 41.976006 4.8221779
13.761281 41.888367 4.8372045
14.441274 41.658825 4.8372045
15.128542 41.448666 5.4516492
14.457479 41.70557 5.4537611
13.776723 41.935371 5.4537611
13.097387 42.170383 5.455873
12.370816 42.246742 5.4389768
11.645241 42.310654 5.4220805
10.925138 42.378731 5.4072967
10.201917 42.417988 5.3904004
9.510129 42.578426 5.3904004
8.6120348 41.739891 5.2657962
7.8392482 41.387516 5.2045522
7.2255969 41.863342 5.2489009
6.6090479 42.397629 5.3016982
5.9039235 42.398006 5.2890267
5.2067857 42.437592 5.282691
4.5008998 42.380745 5.2657962
3.8089454 42.431366 5.2636843
3.1127834 42.419556 5.2552366
2.4199629 42.430473 5.2510128
1.7310892 42.515476 5.2573485
1.0375851 42.486759 5.2510128
0.34477937 42.361282 5.234118
-0.34464025 42.344193 5.2320061
-1.0338295 42.332973 5.2320061
-1.7227447 42.310535 5.2320061
-2.405364 42.174503 5.2193351
-3.0915182 42.129761 5.2193351
-3.7753251 42.056835 5.2172232
-4.4611874 42.006809 5.2193351
-5.1276879 41.792912 5.2024403
-5.8096275 41.72084 5.2045522
-6.4879465 41.62075 5.2045522
-7.1645465 41.509632 5.2045522
-7.8328862 41.353928 5.2003284
-8.508419 41.237694 5.2024403
-9.1822414 41.11042 5.2045522
-9.8461809 40.938896 5.2024403
-10.511238 40.773209 5.2024403
-11.17351 40.596714 5.2024403
-11.83282 40.409466 5.2024403
-12.641088 40.70121 5.2657962
-13.301906 40.490059 5.2657962
-13.981592 40.332779 5.2742438
-14.62772 40.07653 5.8638411
-13.973458 40.309315 5.8638411
-13.320819 40.54763 5.8661861
-12.659062 40.759083 5.8661861
-11.950797 40.812359 5.8450799
-11.185304 40.639568 5.7934871
-10.526592 40.832767 5.7958322
-9.8326359 40.88258 5.7794161
-9.1658897 41.037209 5.7794161
-8.4967136 41.180965 5.7794161
-7.8221121 41.297047 5.777071
-7.1488853 41.418896 5.777071
-6.4763923 41.546627 5.7794161
-5.8157535 41.764832 5.7958322
-5.1351786 41.853962 5.7958322
-4.4532428 41.932003 5.7958322
-3.7686017 41.981937 5.7934871
-3.0860126 42.054733 5.7958322
-2.4010804 42.099392 5.7958322
-1.7203709 42.252235 5.8122478
-1.0324049 42.274639 5.8122478
-0.34402648 42.26878 5.8099027
0.34416535 42.285843 5.8122478
1.0357373 42.411095 5.8310089
1.7252297 42.371571 5.8286638
2.4146817 42.337875 5.8286638
3.1134834 42.429092 5.847425
3.8021622 42.355801 5.8450799
4.4928842 42.305267 5.847425
5.195435 42.345081 5.8638411
5.8863492 42.271805 5.8661861
6.5788822 42.204109 5.8708763
7.2852798 42.209133 5.8872929
7.79671 41.162937 5.7583103
8.5725632 41.548584 5.8310089
9.1658897 41.037209 5.7794161
10.187738 42.359035 5.9881377
10.875865 42.187599 5.9881377
11.588278 42.103695 6.0022092
12.315219 42.056873 6.0233169
12.998146 41.850849 6.0233169
13.714909 41.747211 6.0397339
14.437321 41.647419 6.0584965
15.130231 41.453293 6.6806154
14.447915 41.677982 6.6780372
13.76761 41.907631 6.6780372
13.043247 41.996063 6.6574116
12.319665 42.072056 6.6367865
11.637747 42.283428 6.6393647
10.9182 42.351822 6.6213174
10.195538 42.391464 6.6006923
9.5041819 42.5518 6.6006923
8.7827797 42.567436 6.5800676
7.9112754 41.767784 6.4356966
7.1376939 41.354053 6.3532023
6.5187073 41.818085 6.4073391
5.8911901 42.306564 6.4666328
5.1934919 42.329243 6.4563208
4.5020142 42.391235 6.4537425
3.8068495 42.408016 6.4460087
3.1160715 42.464363 6.4460087
2.4176803 42.39045 6.4279628
1.7273722 42.424187 6.4279628
1.0328648 42.293472 6.4047608
0.34445727 42.321709 6.4073391
-0.34459585 42.338737 6.4099169
-1.0336963 42.327518 6.4099169
-1.7169806 42.168972 6.3892932
-2.4041057 42.152439 6.3918715
-3.0874083 42.073757 6.3867154
-3.7718322 42.017929 6.3867154
-4.4426684 41.832436 6.36867
-5.1229854 41.754581 6.36867
-5.8019443 41.665665 6.36867
-6.4793663 41.565704 6.36867
-7.1579676 41.471516 6.3712478
-7.8288803 41.332779 6.36867
-8.504056 41.216549 6.3712478
-9.1700983 41.056053 6.36867
-9.8371515 40.901352 6.36867
-10.497347 40.719326 6.3660917
-11.163261 40.559483 6.36867
-11.821968 40.372406 6.36867
-12.629066 40.662498 6.4460087
-13.289254 40.45155 6.4460087
-13.945922 40.229881 6.4460087
-14.59065 39.974964 7.0382152
-13.93248 40.191105 7.0354047
-13.276445 40.41256 7.0354047
-12.596733 40.558395 7.0241632
-11.939672 40.774364 7.0269737
-11.139137 40.471828 6.9426646
-10.478903 40.647781 6.9426646
-9.8158922 40.812958 6.9426646
-9.150281 40.967327 6.9426646
-8.4822445 41.110836 6.9426646
-7.8151236 41.260151 6.9454746
-7.1396084 41.365147 6.9426646
-6.4653635 41.47588 6.9426646
-5.7894058 41.575619 6.9426646
-5.1119142 41.664345 6.9426646
-4.4348621 41.75893 6.9454746
-3.7652001 41.94405 6.9651465
-3.0819798 41.999779 6.9651465
-2.3979425 42.04438 6.9651465
-1.7118876 42.043884 6.9595261
-1.0277288 42.083164 6.9623365
-0.34371287 42.230247 6.9848189
0.34357458 42.213257 6.9820085
1.0310475 42.219059 6.9848189
1.722948 42.315525 7.0044909
2.4114881 42.281876 7.0044909
3.1006327 42.253971 7.0073013
3.8001418 42.333294 7.0297842
4.4869013 42.248936 7.0269737
5.1822681 42.237766 7.0382152
5.8643975 42.114159 7.0325947
6.5700483 42.147438 7.0550776
7.1829586 41.616306 6.9848189
7.8846917 41.627438 7.0073013
8.5612154 41.493584 7.0073013
9.45401 42.327171 7.1731153
10.165557 42.266811 7.1899781
10.856427 42.112202 7.1927886
11.576522 42.060982 7.2152724
12.259613 41.866978 7.2152724
12.989859 41.824165 7.2433777
13.668908 41.607189 7.2433777
14.411126 41.571857 7.2771039
15.096895 41.361958 7.9017305
