# .PCD v0.7 - Point Cloud Data file format
VERSION 0.7
FIELDS x y z
SIZE 4 4 4
TYPE F F F
COUNT 1 1 1
WIDTH 1577
HEIGHT 1
VIEWPOINT 0 0 0 1 0 0 0
POINTS 1577
DATA ascii
-2.0723813 0.30579269 1.3945465
-2.0274353 0.3669512 1.3716162
-2.0551095 0.44149071 1.3993237
-2.0605395 0.5133546 1.4136552
-2.0827756 0.59152323 1.4413626
-8.0052338 2.5579078 5.5946198
-2.088553 0.74310452 1.4757582
-2.0031481 0.78707379 1.4327638
-2.0884974 0.90014321 1.5139754
-10.809461 5.0822482 7.9516668
-10.582066 5.4026837 7.9096279
-10.41191 5.7505078 7.9182272
-10.226613 6.0907731 7.9239597
-10.059199 6.4436402 7.9526224
-9.9446573 6.836761 8.0338345
-12.765288 9.4021215 10.55426
-12.424306 9.7904358 10.530375
-12.051846 10.1499 10.489291
-11.440844 10.290147 10.243745
-11.035654 10.595463 10.184508
-11.028744 11.301368 10.512221
-10.287048 11.251851 10.149158
-9.8658829 11.522947 10.098519
-9.5035343 11.860374 10.117628
-8.2252626 10.979198 9.1325798
-7.8388567 11.205829 9.1039162
-7.439383 11.408158 9.0666542
-7.0380564 11.601315 9.0332146
-6.6299543 11.77673 8.9969082
-6.2212348 11.944286 8.9653788
-5.8049297 12.089998 8.9281168
-5.40312 12.260719 8.9195185
-4.9979615 12.422104 8.9137859
-4.5752301 12.535061 8.8832121
-4.1616597 12.667797 8.876524
-3.745106 12.789659 8.871747
-0.53619844 2.0799191 1.4298974
-0.44255972 1.9814137 1.3515521
-0.36981818 1.9524651 1.3228892
-0.30518606 1.9577955 1.3190675
-0.23570602 1.9211074 1.2884938
-0.17343479 1.9320498 1.29136
-0.11045524 1.9366714 1.29136
-0.047358856 1.9392403 1.29136
0.01606806 1.974198 1.3142904
0.08014372 1.9683268 1.311424
0.14942119 2.036243 1.3591956
0.23881108 2.2486582 1.5053765
0.3225663 2.3164537 1.5569698
0.35019436 2.0289404 1.3706608
0.41024977 1.9883547 1.3515521
0.47844422 1.9892972 1.3620619
0.54675001 1.9865074 1.3716162
0.62474263 2.011518 1.40219
0.70492816 2.0335102 1.4327638
0.79027528 2.0604081 1.4690701
5.21454 12.374817 8.9395828
4.2020192 9.1295347 6.6904984
4.4776888 8.949419 6.6618357
4.7652497 8.7964058 6.659925
4.994719 8.5437117 6.5882673
3.5505376 5.643363 4.4385486
3.6857474 5.4558272 4.3831334
3.8580124 5.3283167 4.379312
3.3015156 4.2605824 3.5882154
4.1855369 5.0527425 4.3678465
4.6739912 5.2825046 4.6955595
4.9341264 5.2235556 4.7834592
5.0485506 5.007627 4.7337766
4.8377552 4.4957647 4.3965096
4.848372 4.2200165 4.2789917
4.3155665 3.5160525 3.7057335
5.1366463 3.913883 4.2990556
5.7044787 4.0600214 4.6611638
4.7191648 3.1324539 3.7707026
6.3655753 3.932971 4.9812331
4.9316511 2.8294787 3.7850342
5.0198684 2.6667829 3.7840788
5.2367468 2.5670416 3.882488
5.2193851 2.3510191 3.8108308
5.2971253 2.1815245 3.8136971
5.4782352 2.050205 3.8939533
5.4699955 1.8464756 3.8433154
6.3955908 1.929428 4.4471474
6.4660978 1.7231883 4.4547906
6.5509176 1.5192639 4.4767656
6.6250558 1.3108002 4.4958744
6.627389 1.0884153 4.4710331
6.6578822 0.87193334 4.4700775
6.6441693 0.65098119 4.4442811
6.6589737 0.43418437 4.4423704
6.6681437 0.21716055 4.4414148
6.6745491 0 4.4433255
6.5746355 0 4.6408844
6.5612969 0.21368092 4.6339245
6.5845995 0.42933494 4.6577873
6.5306869 0.63986242 4.6319361
6.5762315 0.86124015 4.6816497
6.507185 1.0686742 4.6548042
6.5435691 1.2946775 4.7084951
7.1826639 1.665776 5.204639
6.4862971 1.7285713 4.7383237
6.2607255 1.888742 4.6160274
6.5322447 2.2050533 4.8665853
5.4201102 2.0284519 4.085084
5.3499107 2.203263 4.0840898
5.1713324 2.3293748 4.0035534
6.6522489 3.2609174 5.229496
4.9739842 2.6424072 3.9757137
4.8841181 2.8022072 3.9747195
6.229476 3.8488812 5.1688452
5.8039832 3.8525271 4.9172931
6.1276598 4.3612089 5.3090382
5.4233804 4.1323614 4.8128943
4.9616718 4.0424585 4.5175943
4.7998381 4.1777725 4.4917431
4.7665539 4.4295969 4.5931592
4.7268529 4.6885371 4.6995468
4.5978537 4.8675575 4.7263923
4.4145784 4.9893184 4.7025294
4.4717836 5.3982973 4.9481158
3.9546299 5.1034222 4.5573654
4.28372 5.9162626 5.1559196
5.4593019 8.081131 6.8839722
3.5071535 5.5744061 4.6488385
4.9439754 8.456912 6.9147944
4.6701121 8.6207867 6.9207602
4.4191771 8.8324738 6.9714684
4.1458316 9.0074625 6.9993081
5.1112103 12.129601 9.2911148
4.7076354 12.273761 9.2791843
4.3171687 12.45376 9.3040409
0.61941618 1.9943682 1.4741142
0.56052643 2.0365603 1.4910169
0.48274103 2.0071626 1.4572115
0.41516048 2.0121555 1.4502516
0.43281814 2.5076423 1.7962598
2.32532 16.698881 11.901091
1.6454742 15.493894 10.998288
0.18169722 2.4760859 1.7525116
0.098369345 2.4159474 1.7067748
0.016216982 1.9924953 1.4065033
-0.047786798 1.9567636 1.3816465
-0.11153354 1.9555779 1.3826407
-0.17084607 1.9032116 1.3488353
-0.23339047 1.9022346 1.3528124
-0.30234313 1.9395578 1.3856236
-0.37239248 1.966056 1.412469
-0.44540083 1.9941338 1.4422973
-0.52062219 2.0194988 1.4721256
-3.6787753 12.563136 9.240407
-4.0870695 12.44075 9.2433901
-4.492743 12.309066 9.2493553
-4.8946981 12.165454 9.2563152
-5.3062634 12.040933 9.2881327
-5.6996469 11.870725 9.2950926
-6.1057878 11.722637 9.3298922
-6.5083046 11.560644 9.3646917
-6.9074516 11.386031 9.400486
-7.3205662 11.225955 9.4601421
-7.672399 10.967875 9.4482107
-8.0498247 10.745022 9.4770451
-8.4525595 10.548757 9.5416727
-8.8757191 10.366477 9.6331463
-10.079995 11.025378 10.544898
-10.488617 10.74789 10.600577
-10.890815 10.456401 10.657251
-11.206545 10.079412 10.639354
-11.834664 9.9669943 10.921728
-12.252386 9.6549616 11.011213
-9.5444784 7.0298724 8.3674326
-11.45362 7.8741441 9.8111219
-9.9282761 6.3597775 8.32269
-10.025949 5.9712577 8.2371826
-10.181706 5.6233664 8.2103367
-10.321714 5.2697616 8.1805086
-10.446983 4.9118233 8.1486912
-10.627195 4.5803256 8.1685772
-2.0184159 0.79307282 1.5307879
-2.0643938 0.73450869 1.5466963
-2.0120704 0.64291573 1.4910169
-2.0576756 0.58439463 1.5099081
-2.0947421 0.52187574 1.523828
-2.0004473 0.42974788 1.4442859
-2.005059 0.36290124 1.4383202
-2.0492525 0.30237988 1.4621829
-1.9880371 0.22750981 1.412469
-1.9943891 0.16267946 1.412469
-1.9929999 0.097401686 1.408492
-1.9922974 0.032432888 1.4065033
-1.9600444 0.031907838 1.4655669
-1.9593464 0.09575697 1.4665993
-2.0033622 0.16341139 1.5027326
-1.9640555 0.22476536 1.4779555
-1.9611632 0.28938177 1.482085
-1.9547811 0.35380131 1.4851822
-1.9813817 0.42565209 1.5151212
-2.0053346 0.49960107 1.5450602
-2.0331743 0.57743609 1.5801611
-7.731204 2.4703472 6.0679178
-2.0069072 0.71405506 1.5925497
-1.995454 0.78405064 1.6028734
-2.0094557 0.86607623 1.6359097
-10.230411 4.809998 8.451684
-10.1373 5.1756082 8.5094967
-9.9743433 5.5088391 8.5187883
-9.79568 5.8341136 8.5239506
-9.6645422 6.1908369 8.5807314
-9.468153 6.5091739 8.590023
-9.2612724 6.82128 8.5993137
-9.1243572 7.1900539 8.6850014
-11.59256 9.7630968 11.330992
-11.286087 10.150955 11.348542
-10.673778 10.248021 11.062573
-10.302727 10.557405 11.028504
-9.9480381 10.881045 11.02231
-9.5841026 11.19384 11.017149
-8.3511925 10.422253 9.9847689
-7.9073443 10.554837 9.8598499
-7.5524759 10.796441 9.8505592
-7.1525507 10.968307 9.789649
-6.7824359 11.179959 9.776228
-6.3912296 11.352685 9.7400942
-5.9979048 11.51551 9.707058
-5.6121316 11.688456 9.6936369
-5.2097702 11.821972 9.658536
-4.8191152 11.977596 9.6523418
-4.4200668 12.10995 9.6378889
-4.023982 12.248716 9.6389208
-3.6216068 12.367904 9.6347914
-3.2160835 12.475221 9.6316948
-0.44808534 2.0061529 1.5368011
-0.36867127 1.9464098 1.4810526
-0.304483 1.9532852 1.4779555
-0.2362026 1.9251547 1.4500812
-0.17316751 1.9290723 1.4480164
-0.11028501 1.9336866 1.4480164
-0.047049876 1.9265883 1.4407898
0.016257891 1.9975218 1.4934412
0.084245257 2.0690603 1.5481573
0.9516297 12.96837 9.7215118
1.3846155 13.037631 9.8020372
1.8023489 12.943254 9.7700329
2.2031977 12.764788 9.6843462
2.6345398 12.768806 9.7473211
0.4932735 2.0509551 1.577064
0.55317402 2.0098476 1.5584811
0.60969967 1.9630834 1.5368011
0.70041138 2.0204806 1.5987439
4.6467605 12.115047 9.7008638
5.0289865 11.934472 9.6822805
5.4176702 11.770729 9.6874428
5.8016396 11.595559 9.6936369
4.6000314 8.4914207 7.2200541
6.5577469 11.217348 9.7142849
7.0002818 11.12652 9.8278465
4.683352 6.9325314 6.2547789
5.596509 7.7293606 7.1343665
4.3082743 5.5597978 5.2585316
4.3953471 5.3060236 5.1511641
4.4696469 5.0515566 5.0427642
4.7094593 4.9857097 5.1274195
4.8594427 4.8200521 5.1170959
7.0772834 6.5769758 7.2231512
5.2096329 4.5344577 5.1635528
5.3801603 4.3834171 5.1883302
5.4474955 4.1507359 5.120193
5.5707135 3.9648168 5.1119337
5.7612429 3.824157 5.1697469
6.1493325 3.799365 5.4040976
5.8816714 3.3745422 5.0696063
7.6554284 4.0669117 6.4808698
5.845747 2.8655717 4.8672595
6.1726241 2.7803967 5.061347
6.7259021 2.7699401 5.4381661
6.2279348 2.3307765 4.97153
6.8225327 2.3030441 5.38345
6.320118 1.9066596 4.9353967
6.31078 1.6817967 4.8827453
7.0522571 1.6355326 5.4123564
6.4312172 1.2724482 4.9013281
6.4665012 1.0619928 4.8992634
6.4634128 0.84646511 4.8734541
6.5658746 0.64331007 4.9322996
6.5144377 0.42476022 4.8806806
6.5606956 0.21366131 4.9075227
6.4896059 0 4.8517742
6.4479589 0 5.1010361
7.2446032 0.23593403 5.7343063
8.7186699 0.56848258 6.9120612
7.5355296 0.73831475 5.9899683
8.5398607 1.1184021 6.8136477
7.0525551 1.1582403 5.654078
6.8758192 1.360415 5.5449672
6.8555565 1.5899146 5.5674314
6.9256034 1.8456446 5.6701236
6.7958369 2.0501747 5.6155682
6.6909127 2.2586133 5.5866861
6.5834565 2.463829 5.5610127
6.5635366 2.7030728 5.6155682
6.1219392 2.7575662 5.3117695
6.4417458 3.1577294 5.6754723
6.2758431 3.3340139 5.6219869
7.3473969 4.2154856 6.7013278
6.0893307 3.7622924 5.6626358
5.9061875 3.9203672 5.6080804
5.5264816 3.9333355 5.3663249
5.4019775 4.1160536 5.3727436
5.3364229 4.3477821 5.4454837
7.1279111 6.2041254 7.4758005
6.780179 6.7252192 7.5549593
4.5236511 5.1125917 5.4005561
4.3574295 5.2602496 5.4037652
7.9275136 10.230401 10.238871
5.5887752 7.7186799 7.5389132
5.3164072 7.8696113 7.5132403
6.8640766 10.91003 10.197152
6.4486809 11.030785 10.108366
6.0823517 11.227708 10.101948
5.6918902 11.376204 10.063438
5.3383694 11.598435 10.100878
4.9312382 11.702502 10.046323
4.5564294 11.879537 10.065578
4.1544976 11.984502 10.034555
3.7790499 12.167614 10.079484
3.3824306 12.289389 10.083762
3.3837695 14.069192 11.447647
0.41984981 2.0348833 1.6437219
2.5391564 14.71125 11.81028
1.7527486 12.587058 10.05381
1.349683 12.708704 10.110505
0.92798197 12.64611 10.031346
0.094210625 2.3138094 1.8319914
0.016426051 2.0181825 1.5966545
-0.047557048 1.9473559 1.5410293
-0.11045552 1.9366761 1.5346111
-0.17343523 1.9320546 1.5346111
-0.23623095 1.9253858 1.5346111
-0.30065069 1.9287006 1.5442386
-0.37736171 1.9922913 1.6041424
-2.7746768 12.422692 10.069857
-3.1613591 12.262944 10.01851
-4.0482655 13.824957 11.396301
-4.5750365 13.926086 11.596337
-4.3360362 11.879725 10.004603
-4.7360654 11.771182 10.037765
-5.1063442 11.587278 10.01744
-5.5006986 11.456373 10.05381
-5.8725581 11.274855 10.057019
-6.2623086 11.123684 10.098739
-6.6477122 10.957885 10.139388
-7.0075121 10.745892 10.149015
-7.3783755 10.547561 10.183246
-7.766428 10.366739 10.247428
-8.1124315 10.124279 10.263474
-9.389205 10.966208 11.420904
-8.9838963 9.826478 10.533042
-9.2678175 9.496913 10.497742
-10.504496 10.085491 11.520388
-11.060449 9.9480114 11.768561
-8.7410574 7.3615999 9.0407915
-8.8836441 7.0003705 8.9477262
-9.0708675 6.6810398 8.912426
-9.2188997 6.3378162 8.8503828
-9.4943171 6.0817952 8.9199142
-9.5641041 5.6961918 8.8065243
-9.7101183 5.3629079 8.7755032
-9.9012108 5.0550733 8.7947578
-10.082532 4.7404699 8.8140125
-2.0533512 0.88499516 1.7688783
-2.0055587 0.78802103 1.7046956
-1.988106 0.70736557 1.669395
-2.0641735 0.6595642 1.714323
-2.0104067 0.57096994 1.6533493
-2.0174298 0.50261444 1.6447916
-1.9600102 0.42106146 1.5859574
-1.9646939 0.35559544 1.5795391
-2.0086694 0.29639164 1.6062819
-1.9756069 0.22608732 1.5731208
-1.9428362 0.15847436 1.5420991
-1.9685739 0.096207939 1.5592145
-1.9720142 0.032102697 1.5602843
-1.9537884 0.031805996 1.6345931
-1.950397 0.095319606 1.6334869
-1.9502151 0.15907626 1.6368057
-1.9479455 0.22292174 1.6401243
-1.9435823 0.2867876 1.6434431
-1.9371214 0.35060501 1.6467619
-1.9298548 0.41458279 1.6511868
-7.4575744 1.8579503 6.4290752
-1.9433153 0.55191553 1.6899055
-1.9658911 0.62816006 1.7264117
-1.9518788 0.69447601 1.7330493
-1.9393171 0.76199347 1.7430055
-1.9535638 0.84198678 1.7795117
-9.7603683 4.5889993 9.0221224
-9.6446934 4.924108 9.0586281
-9.5719156 5.2865782 9.1471281
-9.3175068 5.5493231 9.0719032
-9.2199116 5.9060187 9.159297
-9.0053511 6.1910062 9.1415968
-8.8342037 6.5067277 9.1781034
-8.6509695 6.8170214 9.2135029
-8.4851856 7.1461082 9.2798777
-8.2785673 7.4459257 9.3141718
-9.3616152 8.9881983 10.856282
-10.138268 10.388882 12.14285
-8.8015804 9.6270638 10.911595
-9.2240953 10.773365 11.864075
-8.8437309 11.036937 11.830888
-7.6131496 10.162141 10.621758
-7.2510533 10.365551 10.581933
-6.8845334 10.557307 10.543214
-6.5056973 10.723791 10.492327
-6.1324348 10.89299 10.456926
-5.7727904 11.083308 10.453608
-5.3883677 11.22242 10.413783
-5.0154266 11.380972 10.403827
-4.6393609 11.53083 10.397189
-4.2697406 11.698091 10.417102
-3.8751531 11.795691 10.386127
-3.4850667 11.901615 10.373958
-3.1040802 12.04076 10.401614
-2.7180078 12.168975 10.430377
-2.3197341 12.247098 10.427058
-1.9381987 12.433715 10.52662
-0.23780206 1.9381911 1.6334869
-0.174234 1.9409529 1.6301681
-0.11096424 1.9455957 1.6301681
-0.048319675 1.9785838 1.6556119
0.017464172 2.145731 1.7949991
0.50484759 12.399037 10.380595
0.90574414 12.343062 10.35294
1.3173606 12.404355 10.434802
1.7156786 12.320847 10.406039
2.115808 12.258473 10.406039
2.507549 12.15332 10.380595
2.9324207 12.192553 10.490114
3.3361521 12.121244 10.516665
3.6912715 11.884989 10.410464
4.0891614 11.796026 10.443652
4.4837375 11.690014 10.47352
4.848002 11.504972 10.443652
5.2132802 11.32666 10.430377
5.6147008 11.221927 10.496752
6.7807646 12.516942 11.908325
6.346971 10.856805 10.519983
6.6843162 10.624312 10.500071
7.0310335 10.407686 10.506708
5.5589905 7.6775441 7.9291482
7.7564902 10.009696 10.592996
8.0680695 9.7397013 10.57972
6.6649375 6.6109114 7.8528171
5.5504112 4.2291527 5.8372321
5.4728756 3.8951828 5.6193008
6.6060209 4.3848977 6.6326246
5.9689751 3.6879306 5.8693132
6.8475022 3.9286766 6.6038623
6.1799307 3.2830608 5.8538256
6.2229586 3.0504801 5.7974072
7.1991644 3.2427914 6.6049685
6.4914017 2.6733654 5.872632
6.4833264 2.4263556 5.7907696
6.5889392 2.2241912 5.8173194
6.6274586 1.9993784 5.7907696
6.7145829 1.7894084 5.8128943
6.8143587 1.5803602 5.851613
6.2278094 1.232203 5.3106575
6.8113976 1.1186351 5.7741756
6.9477878 0.90990013 5.8615694
20.241776 1.983245 17.013664
8.0215912 0.52303106 6.7244434
8.5181236 0.27740866 7.1293306
8.397007 0 7.0242367
8.313098 0 7.3491869
8.3009472 0.27033585 7.3423352
7.7605486 0.50601023 6.8752742
19.851419 1.9449987 17.633665
6.8607302 0.89849877 6.1170139
6.798532 1.1165221 6.0907488
6.7839308 1.3422344 6.1135879
6.7353883 1.5620457 6.1124458
6.6460261 1.7711384 6.080471
6.5489912 1.9757062 6.0473542
6.4212418 2.1675825 5.9913983
6.4089847 2.3985336 6.0496383
6.327518 2.6058726 6.0496383
7.6868215 3.4624515 7.453105
7.0921783 3.4765697 6.9826183
5.9953508 3.185003 6.0016761
5.9176345 3.3951757 6.0313668
6.6028924 4.079597 6.8615708
5.6465211 3.7480078 5.9913983
8.9445343 10.797762 12.395501
7.582696 9.7854156 10.944072
7.2359238 9.9935637 10.907529
6.8822179 10.187402 10.868703
7.4123292 11.781445 12.305286
6.1930599 10.593533 10.848147
6.6448336 12.266021 12.332693
6.2570863 12.505843 12.362384
5.818625 12.641866 12.303002
4.785078 11.355645 10.893826
4.3990431 11.469199 10.859567
4.0005479 11.540402 10.797901
3.6308386 11.690409 10.821882
3.2449675 11.789943 10.810463
3.2418993 13.479316 12.256182
2.466284 11.953321 10.789907
2.0642571 11.959801 10.729383
1.6735202 12.018094 10.727099
1.2809025 12.061062 10.722532
0.88820833 12.104093 10.729383
0.49638197 12.191123 10.786482
0.098777205 12.136236 10.729383
-0.29706153 12.164013 10.75679
-0.69247001 12.14145 10.751081
-0.18196799 2.0271089 1.7992696
-1.4812983 12.073231 10.753365
-1.8999536 12.18837 10.905245
-2.6531401 14.007324 12.603337
-2.6723468 11.964543 10.837869
-3.0458622 11.814931 10.786482
-3.4182925 11.673579 10.753365
-3.8109655 11.600309 10.794476
-4.18786 11.473757 10.797901
-4.5374098 11.277436 10.746513
-4.9015622 11.122588 10.745371
-5.2677102 10.971125 10.759074
-5.6279912 10.805305 10.770494
-5.9969959 10.652411 10.807036
-6.3606491 10.484698 10.841295
-6.704196 10.280763 10.850431
-7.0871091 10.131188 10.930368
-7.4015017 9.879631 10.913239
-7.7716622 9.6990013 10.987466
-9.0426512 10.561451 12.291582
-8.5204849 9.3196049 11.163328
-8.8752546 9.0946465 11.234129
-7.9030719 7.5878329 9.6856337
-8.0882397 7.2747412 9.617116
-8.3088875 6.997632 9.6034126
-8.4663067 6.6715055 9.5291853
-8.6779356 6.3916302 9.5280437
-8.7930317 6.0450406 9.4332609
-9.0025396 5.7667766 9.4515324
-9.1521835 5.45086 9.4172735
-9.3168411 5.1457 9.4092798
-9.3873568 4.7927241 9.3179235
-9.5898199 4.5088134 9.3681688
-9.574913 4.1267915 9.2174311
-1.9447765 0.76413858 1.8472317
-1.9613165 0.6978339 1.8403801
-1.9756087 0.63126516 1.8335283
-1.9541036 0.5549795 1.7958437
-1.9297695 0.48077512 1.758159
-1.9065086 0.40956742 1.7239003
-1.9137452 0.34637409 1.7193325
-1.9214497 0.2835218 1.7170485
-7.3929238 0.84604186 6.5783648
-7.4693303 0.60926259 6.6251855
-2.0134807 0.098402619 1.7821401
-1.984619 0.032307893 1.7547332
-1.9586327 0.031884857 1.8294779
-1.9565574 0.095620669 1.8294778
-1.9260343 0.15710387 1.8047649
-1.9199001 0.21971224 1.8047649
-1.9790459 0.29202047 1.8683126
-1.908976 0.3455109 1.8118255
-1.90411 0.40905213 1.8188863
-1.8971224 0.47264153 1.8259474
-1.9098239 0.5424037 1.8541908
-1.9295658 0.61655307 1.8918489
-1.9488382 0.69339418 1.9318607
-1.9604193 0.77028489 1.9671652
-1.9435652 0.83767742 1.9765797
-9.2702866 4.3585796 9.5670414
-9.1470718 4.6700468 9.5917549
-8.9736719 4.9561677 9.5741024
-8.8389921 5.2643294 9.6082296
-8.6958466 5.5703173 9.6447115
-8.5151196 5.853981 9.6505957
-8.3789082 6.1713848 9.7188501
-8.1805191 6.4463034 9.727088
-8.0482826 6.7781549 9.8271179
-7.807466 7.0222068 9.8071117
-7.6302042 7.3258495 9.8788977
-9.806098 10.0485 13.112787
-8.2732964 9.0492325 11.451123
-8.0038662 9.3481874 11.493488
-8.7314653 10.896832 13.041001
-8.1137705 10.830372 12.638531
-6.9451079 9.928195 11.315789
-6.5755949 10.083555 11.242827
-6.2190599 10.251307 11.198108
-5.8777618 10.440617 11.18987
-5.5103617 10.579466 11.140443
-5.1614485 10.749812 11.136913
-4.8057613 10.905202 11.129852
-4.4454331 11.048835 11.122792
-4.0812821 11.181759 11.116908
-3.7104385 11.294312 11.102786
-3.3504081 11.441752 11.13456
-2.9740067 11.536202 11.126321
-2.5961068 11.623203 11.122792
-2.6070776 13.764136 13.083367
-1.8605462 11.935568 11.281662
-1.4505 11.822211 11.123969
-0.17345026 1.932222 1.8118255
-0.11024984 1.9330698 1.808295
-0.047270786 1.9356341 1.808295
0.016035257 1.9701676 1.8400691
0.48210853 11.840568 11.067481
0.86495334 11.787185 11.038061
1.2514912 11.78411 11.067481
1.6385669 11.767083 11.095725
2.0245702 11.729864 11.116908
2.39486 11.607152 11.068658
2.794677 11.619836 11.161626
3.6004224 13.081412 12.671481
3.9944096 12.861019 12.577336
4.4199939 12.750381 12.603226
4.8773446 12.716228 12.71973
5.284265 12.540284 12.709141
5.6485524 12.272357 12.617348
6.0726466 12.137213 12.675012
6.4806967 11.963033 12.706786
6.8984523 11.80014 12.765627
6.3770447 10.135922 11.183987
6.7642474 10.012776 11.285192
7.0429749 9.7270813 11.21576
8.4186449 10.864202 12.836236
9.0515604 10.926963 13.251652
6.0980024 6.4557037 8.2937269
6.9208131 5.6386442 8.3372688
5.8424788 3.3520558 6.2907863
5.8884006 3.1281862 6.2272382
6.0957193 2.9881077 6.3402123
6.1208177 2.757061 6.2696037
6.1548853 2.5347772 6.2166467
6.2648129 2.3445783 6.2472439
6.3939214 2.1583598 6.3025546
6.4004688 1.9308997 6.2437139
6.5232406 1.7384168 6.3049083
6.6414256 1.5402542 6.3672795
6.6287084 1.3115228 6.310792
6.7238383 1.1042552 6.363749
6.6787567 0.87466711 6.2907863
6.8015041 0.6663965 6.3825779
19.480272 1.2701702 18.231937
6.8997173 0.22470222 6.4473028
8.1243753 0 7.5876374
18.963337 0.61757654 18.715984
18.900116 1.2323424 18.683292
6.5521359 0.85808456 6.518436
6.5134664 1.0697058 6.5111713
6.4643598 1.2790058 6.5002742
6.4515877 1.4962277 6.5329657
6.3674436 1.6968973 6.5002742
6.2771077 1.8936841 6.4675827
6.2051654 2.0946424 6.4603181
6.1992235 2.3200316 6.5293331
6.0659442 2.4981484 6.4712152
5.9802966 2.6937647 6.4700046
5.939044 2.9113057 6.5244899
5.8812418 3.1243837 6.5692897
5.674221 3.2555199 6.453053
6.4556255 5.618969 8.4423895
6.3448372 5.8963079 8.544096
5.7030449 6.4455318 8.4896107
8.1691647 10.54225 13.156014
6.8880343 9.5130911 11.585613
7.4246993 10.99041 13.083366
6.2237506 9.892272 11.528706
5.8897905 10.074776 11.511755
5.555232 10.254672 11.50449
5.232233 10.457501 11.53476
5.5085073 11.968087 12.996189
5.1498737 12.221354 13.082156
4.7511029 12.38709 13.087
4.314836 12.447032 12.994978
3.8986664 12.55275 12.965919
3.5143971 12.768857 13.063994
2.7237766 11.325043 11.489961
2.3353534 11.318742 11.400362
1.9650694 11.385131 11.396729
1.5932775 11.441844 11.395518
1.2189674 11.477878 11.385832
0.84319425 11.490662 11.365249
0.46873114 11.512019 11.365249
0.016009817 1.967042 1.94042
-0.047245938 1.9346167 1.9089394
-0.110122 1.9308283 1.9077286
-0.17291154 1.9262207 1.9077286
-0.24000198 1.9561213 1.9440525
-1.7836527 11.442289 11.423367
-2.4662716 13.020747 13.07247
-2.5310512 11.331939 11.453636
-2.8899817 11.210269 11.419734
-3.2564445 11.120863 11.430632
-3.6281915 11.043958 11.466955
-3.9983711 10.954601 11.503279
-4.3674812 10.855091 11.542025
-4.6922631 10.647649 11.477853
-5.0283842 10.472677 11.459691
-5.3853126 10.339381 11.499647
-5.7250233 10.169309 11.511755
-6.0580893 9.9859686 11.521441
-6.4214878 9.8472347 11.596511
-6.7773061 9.6883173 11.663104
-7.0949554 9.4704428 11.672791
-8.4893456 10.59467 13.392119
-7.8366137 9.1528444 11.88589
-8.16434 8.9300575 11.935533
-7.2247791 7.4033718 10.204096
-7.453074 7.1557846 10.191988
-8.9085989 8.0125895 11.819297
-7.8371501 6.6003413 10.107232
-8.0150566 6.3159175 10.066066
-8.2094717 6.0465889 10.05759
-8.3189945 5.7191491 9.9583044
-8.4666367 5.4234891 9.9183483
-8.6070452 5.1261864 9.8820248
-8.7628927 4.8397541 9.8747597
-8.9354591 4.562007 9.896554
-9.0192327 4.2405424 9.831171
-6.7864709 2.9249718 7.2897124
-6.7809758 2.6643705 7.1867948
-1.9735637 0.70219147 2.0663428
-6.8744879 2.1966012 7.1189904
-1.9454052 0.55250907 1.9949058
-1.8944691 0.47198048 1.9258906
-1.8944273 0.40697253 1.911361
-1.903047 0.34443778 1.9077286
-1.9083925 0.28159514 1.9028854
-1.9141083 0.21904942 1.9004638
-1.945915 0.1587255 1.9258906
-1.9794739 0.096740648 1.9549496
-1.9766648 0.032178406 1.9501065
-2.0026493 0.032601409 2.0867174
-2.0315318 0.09928482 2.1190581
-1.9701055 0.16069868 2.0593524
-1.943666 0.222432 2.0382066
-1.9377583 0.28592825 2.0406942
-1.9603198 0.35480377 2.0755227
-1.9232196 0.41315737 2.0494015
-1.9157031 0.47727063 2.0568647
-1.8945589 0.53806835 2.0518892
-6.6594005 2.1278744 7.2836094
-6.6203561 2.3555143 7.3209257
-6.5579562 2.5767419 7.3408275
-6.522141 2.8110454 7.3992896
-6.5201054 3.065536 7.5062623
-8.6307554 4.4064407 10.096002
-8.4921598 4.6902285 10.107196
-8.417057 5.0130334 10.206706
-8.2564621 5.2888575 10.215412
-8.1812716 5.6244674 10.343532
-7.9313779 5.8417621 10.26268
-7.7895422 6.1382108 10.332336
-7.6157541 6.4138851 10.373384
-7.3896346 6.6464 10.354727
-7.1771321 6.8908496 10.365921
-6.9998999 7.1729336 10.441797
-7.8454452 8.581254 12.11356
-6.573494 7.6775718 10.530112
-7.4362216 9.2803717 12.389699
-6.9927645 9.3340425 12.150876
-6.708509 9.5899706 12.193168
-7.0319152 10.783314 13.412161
-5.9179883 9.7550297 11.887176
-5.6096301 9.9643373 11.913297
-5.2475762 10.074938 11.834932
-4.9142766 10.235024 11.828713
-4.5838232 10.401577 11.842396
-4.2321301 10.518684 11.812543
-3.8740001 10.613854 11.771495
-3.534296 10.758146 11.797616
-3.1809075 10.862902 11.792641
-2.8152077 10.920219 11.749105
-2.4655533 11.038693 11.783934
-2.1047196 11.111924 11.78269
-1.7369509 11.142693 11.749105
-1.36956 11.162515 11.716764
-1.0073136 11.221394 11.73791
-0.63873953 11.199365 11.686912
-0.27386636 11.214221 11.686912
0.091297083 11.217193 11.686912
0.45646089 11.210663 11.6894
0.82330596 11.219633 11.720496
1.1943685 11.246252 11.78269
1.5551872 11.168305 11.747862
1.9186993 11.116474 11.752837
2.2739704 11.021236 11.724228
2.6398776 10.976203 11.761544
2.9963837 10.886764 11.764032
3.366863 10.840473 11.826225
3.7116752 10.70709 11.806324
4.0595026 10.583947 11.810055
4.402782 10.448404 11.812543
4.7310572 10.278952 11.788909
5.0631251 10.119511 11.788909
5.3921037 9.9535456 11.793885
5.7529998 9.8407879 11.87598
4.5151234 7.1765127 8.8334723
4.744987 7.023766 8.8309851
7.6108227 10.511337 13.520377
7.9481988 10.257094 13.519134
9.6906757 11.698497 15.826513
5.5757341 6.3016467 8.7663031
5.8221669 6.1636882 8.8334723
6.3116956 5.4936924 8.7177925
5.6030984 3.2147141 6.7300873
5.8239746 2.8548992 6.7574525
5.8027792 2.6138039 6.6305776
5.9035506 2.4312696 6.6517234
6.0432954 2.2616761 6.7226238
6.1668758 2.0817177 6.781086
6.117064 1.845402 6.6566987
6.1727362 1.6450086 6.6554551
6.2579017 1.4513087 6.692771
6.3334479 1.2531042 6.7263556
6.346139 1.0422257 6.7002344
18.30475 2.3972371 19.233475
6.4955621 0.63642102 6.7997437
18.42313 1.2012415 19.234718
18.453661 0.60097796 19.23596
18.463446 0 19.23596
17.976349 0 19.782875
17.966824 0.58512318 19.782875
17.934788 1.1694001 19.779047
17.888374 1.752664 19.780323
17.791956 2.33008 19.747147
17.700964 2.9070275 19.740767
6.2293334 1.2325045 6.9882412
6.1791382 1.4330422 6.9805851
6.0451889 1.6110179 6.8848839
6.0128598 1.8139654 6.9116802
5.9451365 2.0068665 6.9053001
16.87396 6.3150043 19.827536
16.671263 6.8657556 19.841572
5.7041984 2.5693991 6.8848839
5.6175432 2.7537069 6.8848839
6.5584159 4.6677895 8.8588839
6.1428432 5.3467236 8.9622412
5.9256349 5.5067396 8.9022684
5.2262239 6.309051 9.0158339
5.0031824 6.4565721 8.9890375
6.6998038 10.648929 13.845563
6.3180356 10.807309 13.776658
5.2913227 9.7675095 12.225019
4.9446492 9.8827162 12.16122
4.6043515 10.003669 12.11911
4.2735953 10.141826 12.111454
3.9399722 10.272307 12.107626
3.5993478 10.383059 12.09359
3.2598205 10.495822 12.094866
2.9081495 10.566182 12.060413
2.5621414 10.652988 12.057861
2.2189534 10.754586 12.084658
1.871073 10.840539 12.10635
1.5221838 10.931297 12.145906
1.1622604 10.943921 12.111454
0.80304849 10.943574 12.075726
0.44523481 10.934951 12.043825
0.089457609 10.991186 12.096142
-0.26639518 10.908294 12.008097
-0.62131447 10.893842 12.008097
-0.97827202 10.897872 12.041273
-1.3316277 10.85335 12.033617
-1.6852658 10.811129 12.041273
-2.0420969 10.781305 12.075726
-2.3861287 10.683096 12.046377
-2.738385 10.622224 12.071898
-3.0924582 10.560844 12.110178
-3.4378278 10.464504 12.121662
-3.7778141 10.350327 12.12549
-4.1269937 10.257374 12.1676
-4.4605517 10.121851 12.172704
-4.8006992 9.998476 12.20588
-5.1262794 9.8420572 12.21226
-5.4934053 9.7578878 12.323274
-5.7654099 9.5035248 12.232677
-6.1736608 9.4671965 12.438115
-7.385098 10.557171 14.178604
-7.7470617 10.34089 14.219437
-7.0673943 8.8200808 12.438115
-7.3258557 8.5563002 12.396007
-6.5732169 7.1897063 10.720593
-6.7559772 6.9229813 10.645309
-8.1762962 7.8501592 12.473844
-7.1981378 6.4741635 10.654242
-7.3305569 6.1736956 10.547056
-7.5667849 5.9626765 10.601925
-7.7717962 5.7242241 10.622341
-7.876605 5.4150147 10.518984
-8.0184221 5.1363754 10.479427
-8.2241955 4.8981714 10.534296
-8.2980728 4.583034 10.432215
-8.3426819 4.2593641 10.308441
-8.4643097 3.9796362 10.293129
-6.358593 2.740556 7.6198702
-6.4088149 2.5181415 7.5777617
-6.4524264 2.2957652 7.5369291
-6.4905992 2.0739374 7.4986486
-6.5814347 1.8691748 7.529273
-6.5712819 1.637143 7.4527121
-6.6437612 1.4272521 7.4782324
-6.6558919 1.2046685 7.4437799
-6.665194 0.98349065 7.4144316
-6.6902184 0.7656247 7.4106035
-6.758976 0.55132002 7.4629202
-6.7142758 0.32813939 7.3978434
-6.71908 0.10938085 7.3952913
-6.5314598 0.10632656 7.5956945
-6.5312753 0.31919581 7.603538
-6.5207863 0.53189123 7.6074595
-6.4921994 0.74296355 7.598309
-6.5235214 0.96258599 7.6675911
-6.4643955 1.170009 7.6388326
-6.4327793 1.3819276 7.6505976
-6.3843889 1.5905812 7.6505976
-6.3324776 1.7984692 7.6545191
-6.3016381 2.0135589 7.6924281
-6.2433505 2.2213762 7.7055006
-6.1949415 2.4341068 7.7394881
-6.1206894 2.6380196 7.7499456
-6.1190734 2.8769844 7.8623662
-6.028194 3.0777004 7.8702092
-8.0416021 4.4413848 10.682025
-7.802949 4.6472855 10.560455
-7.7923832 4.9915838 10.76046
-7.6535721 5.2616839 10.799675
-7.3741555 5.4313464 10.649345
-7.3285589 5.7749529 10.849349
-7.1444421 6.016952 10.861115
-6.9715548 6.27037 10.902946
-6.7515988 6.4822903 10.883337
-6.542521 6.7042484 10.892488
-6.3868294 6.9858375 11.006215
-6.1450915 7.1772151 10.986607
-5.8948617 7.3567648 10.96177
-6.6404295 8.86374 12.878144
-6.2375627 8.9167423 12.653304
-6.8473282 10.500254 14.576215
-5.601614 9.2335281 12.557878
-5.3350492 9.4766006 12.645461
-4.9822164 9.5654678 12.540884
-4.6521668 9.6891251 12.497746
-4.3329635 9.8323317 12.493824
-3.9963617 9.9326973 12.449379
-3.6690118 10.052235 12.442842
-3.3367136 10.156719 12.431078
-2.9951863 10.228659 12.393168
-2.6606607 10.32073 12.393168
-2.3230691 10.400768 12.391861
-1.9824606 10.466454 12.386632
-1.6398655 10.519881 12.380096
-1.2928822 10.537557 12.344802
-0.95463169 10.634521 12.415391
-0.60797536 10.65996 12.415391
-0.25927606 10.616781 12.348723
0.086369179 10.611727 12.339573
0.43410903 10.661702 12.407549
0.77967894 10.625105 12.387939
1.1283144 10.624282 12.423234
1.4736886 10.583038 12.424541
1.8127923 10.502875 12.393168
2.1466537 10.404172 12.352644
2.4860082 10.336438 12.361795
2.8369489 10.307488 12.431078
3.1719518 10.212906 12.434999
3.5038013 10.107435 12.438921
3.8200679 9.959692 12.403626
4.1461563 9.8393965 12.415391
4.479269 9.7319069 12.457222
4.7961802 9.5859785 12.463758
6.7201548 12.40506 16.405006
6.177958 10.567699 14.233725
6.4743571 10.290595 14.136992
6.8077693 10.077199 14.140913
5.0435085 6.0884781 9.1931095
5.2762613 5.9631853 9.2584705
5.8251805 5.4133868 9.246706
5.9287639 5.160388 9.139514
6.3762269 4.5381207 9.1002979
16.388865 6.1334591 20.347563
16.574497 5.5949593 20.341026
16.737066 5.0492549 20.327955
16.893635 4.5020838 20.329262
17.029034 3.9493089 20.326647
17.144148 3.392055 20.321419
17.190004 2.8231127 20.256058
17.271675 2.2619429 20.254751
17.365236 1.7014081 20.288738
17.411417 1.1352749 20.288738
17.459368 0.56859702 20.312267
17.479866 0 20.32534
16.961685 0 20.848713
16.946173 0.55188376 20.840689
16.915974 1.1029705 20.836676
16.850533 1.6509784 20.811264
16.784628 2.198158 20.807253
16.706333 2.743679 20.809927
16.603907 3.2851653 20.804577
7.3535175 1.7053998 9.2785769
16.384411 4.3663783 20.842026
6.9819489 2.8753881 9.2812519
6.0224967 4.58886 9.3066626
5.5861845 5.1912851 9.3735342
5.4212031 5.3772588 9.3855715
4.699039 6.0640769 9.4297066
4.5349007 6.2631693 9.5046034
7.8510623 11.621533 17.238981
7.3394127 11.665548 16.940733
6.5670195 11.233209 15.99383
5.6246858 10.38288 14.514628
5.2447968 10.482612 14.407633
4.3908324 9.5397644 12.908371
4.0416536 9.5913973 12.793351
3.7051055 9.6599627 12.717118
3.3887143 9.7754431 12.717118
3.068732 9.8805647 12.717118
2.7368343 9.9437428 12.676995
2.4109561 10.024384 12.672982
2.0811901 10.08689 12.659608
1.7565751 10.177166 12.694382
1.4287337 10.260201 12.733167
1.0969976 10.329402 12.767941
0.75812823 10.331421 12.733167
0.42131016 10.347362 12.729155
0.083992258 10.319687 12.685019
-0.25123659 10.287582 12.648909
-0.58490682 10.255487 12.626172
-0.92560893 10.31121 12.725142
-1.2543839 10.223779 12.660946
-1.5854936 10.171081 12.652921
-1.9159205 10.115153 12.654259
-2.2517395 10.081414 12.697056
-2.5795069 10.005939 12.701069
-2.904748 9.9198074 12.705081
-3.2366221 9.8520479 12.746541
-3.5641677 9.764986 12.777303
-3.8715975 9.6226006 12.749216
-4.198554 9.5273275 12.797364
-4.5219817 9.4179869 12.841499
-5.6022115 10.75581 14.906496
-5.935462 10.543109 14.871723
-5.5277095 9.1117067 13.099624
-5.8166084 8.9196634 13.088924
-6.1294293 8.7621632 13.143758
-5.4784746 7.3127465 11.231229
-5.7789168 7.2120633 11.359623
-6.0021129 7.0102224 11.343574
-6.1272626 6.7019267 11.161683
-6.3543196 6.5113945 11.183082
-6.5558319 6.294332 11.171045
-6.7507644 6.0717859 11.160345
-6.917357 5.8257041 11.11621
-7.1597209 5.6419072 11.204481
-7.2248011 5.321341 11.029277
-7.2803073 5.0050716 10.859423
-7.4338655 4.7619271 10.851398
-7.7391739 4.6093025 11.072075
-7.8317666 4.3254924 10.997179
-7.8220778 3.9935694 10.795226
-5.8889618 2.7687933 7.9986534
-5.9439888 2.5618618 7.9558554
-6.0728374 2.3861299 8.0200529
-6.0581012 2.1554646 7.9036956
-6.1457796 1.9637574 7.9304442
-6.154108 1.747811 7.8635726
-6.1971793 1.5439407 7.8501983
-6.2920222 1.3516893 7.9103827
-6.2502427 1.131249 7.8074002
-6.2859054 0.92752427 7.8100753
-6.3106027 0.72218168 7.8074002
-6.3752294 0.52001834 7.8622351
-6.3344383 0.30957603 7.7953634
-6.3476858 0.10333487 7.8033881
-6.1385036 0.099929564 7.9820852
-6.1655951 0.30132434 8.0258179
-6.1975698 0.5055269 8.0845842
-6.1297917 0.70148981 8.021718
-6.0797935 0.89711118 7.9902849
-6.0566802 1.0962155 8.0025854
-6.0907555 1.3084537 8.099618
-5.9970002 1.4940687 8.0353851
-5.957325 1.6919233 8.0517845
-5.9211249 1.8919737 8.081851
-5.8613563 2.0854633 8.0886841
-5.7962394 2.2774494 8.0968847
-5.7470317 2.4769731 8.1365175
-5.6947536 2.6774833 8.1816168
-5.6364155 2.8776774 8.2280836
-7.4269576 4.1019158 11.031093
-7.2967315 4.3457894 11.042026
-7.3284349 4.6943893 11.315357
-7.1769471 4.9340134 11.323557
-6.874589 5.0633969 11.100792
-6.7895212 5.3501878 11.238824
-6.6559978 5.6055908 11.313991
-6.5364418 5.8790193 11.430156
-6.2748933 6.0245996 11.309891
-6.1334672 6.2850833 11.417856
-6.9115214 7.5597396 13.317507
-5.7245231 6.6860085 11.443823
-5.4880862 6.8491106 11.411023
-6.102983 8.1463451 13.23414
-5.946054 8.5000229 13.486972
-4.8250747 7.3991647 11.484822
-5.3324251 8.7898054 13.366706
-5.1265168 9.1061869 13.586738
-4.6953211 9.0146503 13.215008
-4.3834858 9.1295395 13.167174
-4.0712838 9.2385263 13.126175
-3.7566442 9.336895 13.085176
-3.4301982 9.3979416 13.007276
-3.1224818 9.5046129 13.007276
-2.8108649 9.5991945 13.004542
-2.4958761 9.68153 12.999076
-2.1842344 9.7791824 13.027776
-1.8583134 9.8110151 12.982677
-1.5340985 9.8413773 12.949877
-1.2133367 9.8892269 12.953977
-0.89052165 9.9203396 12.949877
-0.56570911 9.9188824 12.917077
-0.24304135 9.9520054 12.943043
0.08124359 9.9819727 12.978576
0.40858999 10.034955 13.057842
0.73516095 10.018435 13.060575
1.0609796 9.990243 13.061942
1.3819714 9.924386 13.027776
1.7042738 9.8741455 13.027776
2.0183978 9.7825556 12.986776
2.3313222 9.6932783 12.962176
2.6467149 9.616312 12.967643
2.9589443 9.5270748 12.970376
3.2860703 9.4793453 13.044175
3.6041706 9.3968048 13.085176
3.9175115 9.2967901 13.116609
5.5092616 11.969726 17.13184
5.6132798 11.21909 16.31048
5.3981929 9.9647865 14.734728
6.6332102 11.346432 17.088108
7.0046148 11.133408 17.101774
7.4421396 11.016226 17.284908
4.5337234 5.8507385 9.6234379
4.7378535 5.7194948 9.6562376
5.3950071 5.0136232 9.5756054
5.5505834 4.8312201 9.5674057
5.7829318 4.406322 9.4526062
5.963542 4.2444024 9.516839
6.950213 2.346144 9.5373392
7.1735134 1.663654 9.5742388
7.1712747 1.4188724 9.5045395
7.2478881 1.1903198 9.5496387
16.283621 2.1325448 21.352072
16.317205 1.5987242 21.316538
7.3336124 0.47817278 9.5551052
7.3379369 0.23897362 9.5455389
7.3449807 0 9.5496387
7.0205879 0 9.6630106
7.0239587 0.22874831 9.6727743
7.0036893 0.45666084 9.6602211
6.9820881 0.68408972 9.6560364
6.9631557 0.91191268 9.6658001
6.921783 1.1367636 9.6546412
6.8781319 1.3608726 9.6504574
6.8311791 1.5842609 9.6518517
6.7808881 1.8070786 9.6588259
6.7136245 2.0253727 9.6518517
6.6201367 2.2347224 9.6169806
6.5723639 2.4596775 9.6588259
6.4831972 2.6699867 9.6504574
5.9932513 3.7029305 9.6964874
5.8298631 3.8697052 9.630929
5.7222834 4.0726929 9.6671953
5.6269913 4.2875032 9.7369385
5.4286704 4.4229398 9.6379032
5.3231077 4.6332259 9.7132254
5.1709614 4.8054156 9.7160149
5.012527 4.9718957 9.7174101
4.8682184 5.1537824 9.7578611
4.3654366 5.6335649 9.8094702
4.1851015 5.7800617 9.8220243
7.1058545 10.51844 17.47142
6.7435284 10.718427 17.429573
6.4601226 11.050356 17.61788
6.0709481 11.206657 17.542557
5.4390454 10.870853 16.730751
4.8217363 10.475966 15.872913
4.4486771 10.557319 15.768299
3.9313843 10.249917 15.109927
3.1830809 9.182251 13.376119
2.8734982 9.2519588 13.334274
2.5630291 9.312252 13.293823
2.2576122 9.3868027 13.288243
1.9490361 9.4463806 13.27569
1.6405276 9.5048151 13.27569
1.3344736 9.5832901 13.317535
1.0219402 9.6226559 13.31893
0.70811105 9.6498098 13.317535
0.39574111 9.7193871 13.388674
0.079169326 9.7271185 13.388674
-0.23615031 9.6698322 13.313351
-0.54737079 9.5973272 13.231054
-0.8640002 9.6248932 13.300797
-1.1717688 9.5504293 13.243608
-1.4820105 9.5072279 13.243608
-1.7957739 9.4808359 13.281269
-2.1040823 9.4203281 13.285454
-2.4085834 9.3429241 13.279875
-2.7122707 9.2624922 13.28406
-3.0227621 9.2010736 13.33009
-3.322736 9.1035204 13.338459
-3.6282616 9.017808 13.378909
-4.5892792 10.413958 15.663685
-4.2432842 8.8375406 13.493288
-4.6583714 8.9437113 13.879663
-4.8431115 8.6027765 13.588137
-4.4141035 7.2760725 11.71345
-5.3820682 8.2533035 13.561636
-5.6571527 8.0870323 13.583953
-5.0667138 6.7631226 11.631154
-6.1631074 7.6915345 13.565821
-5.5026112 6.4268246 11.645103
-5.6705923 6.2024264 11.56699
-5.8992014 6.0450263 11.625574
-6.0847979 5.8420868 11.61023
-6.3033776 5.6693964 11.668815
-6.385355 5.3776593 11.490273
-6.6087508 5.2077398 11.580939
-6.6327786 4.8852944 11.338234
-6.8408904 4.7029805 11.426109
-7.0492268 4.5155387 11.522355
-7.2037911 4.2904358 11.540488
-7.2739792 4.0174255 11.437268
-5.4765649 2.7960656 8.4634342
-5.553669 2.6111498 8.4466953
-5.565918 2.3989129 8.3420811
-5.6750088 2.2298155 8.3922958
-5.6681981 2.0167377 8.2807074
-5.7308383 1.8311715 8.2807074
-5.8020287 1.6478179 8.30163
-5.7994885 1.4448615 8.2263079
-5.8464174 1.2559634 8.2304926
-5.8742285 1.0631931 8.2165442
-5.9277792 0.87468052 8.2472305
-5.9017591 0.67539388 8.1760931
-5.9499078 0.48532549 8.2165442
-5.9301615 0.28981823 8.1719084
-5.9597578 0.097019739 8.20399
-5.7724667 0.093970791 8.4206209
-5.7663488 0.2818124 8.4206209
-5.7133088 0.4660264 8.3608961
-5.7387004 0.65673351 8.4248867
-5.6911354 0.83976227 8.3907585
-5.6684604 1.0259504 8.4021349
-5.6778159 1.2197419 8.4703913
-5.6615934 1.4105068 8.5102081
-5.5526595 1.5769953 8.419199
-5.5216041 1.7643149 8.4547491
-5.4630876 1.9437597 8.457593
-5.4304981 2.1337428 8.5102081
-5.3581681 2.3093727 8.5102081
-5.3092756 2.4962444 8.5571346
-5.250392 2.6805928 8.5983734
-7.0174246 3.8757303 11.692684
-6.9118443 4.1165581 11.733923
-6.6403737 4.2536364 11.502133
-6.6968403 4.6039491 11.853373
-6.4916253 4.7813296 11.759519
-6.3562937 5.0088015 11.803601
-6.1563339 5.1847811 11.739611
-6.0089555 5.4045868 11.787959
-5.8178988 5.5858335 11.763785
-5.6547885 5.7945719 11.80929
-5.5144939 6.0316877 11.920207
-5.3228521 6.2168732 11.937271
-5.0615878 6.3168397 11.806445
-5.7137527 7.6267991 13.899656
-5.4507408 7.7919617 13.869794
-4.4321556 6.7966299 11.834886
-4.2394261 6.9881396 11.921629
-4.6553984 8.2693434 13.841353
-3.7757618 7.2491689 11.921629
-4.0821719 8.5019903 13.756032
-4.4421582 10.080112 16.066813
-3.0614483 7.6090307 11.962868
-3.2112844 8.7981691 13.660757
-2.5516663 7.7670913 11.924472
-2.6232624 8.9585257 13.615252
-2.3358736 9.0608788 13.647959
-2.0377944 9.1235456 13.63516
-1.7343038 9.1563034 13.5925
-1.4312966 9.1818933 13.554106
-1.1321461 9.2274876 13.559793
-0.83093369 9.2565346 13.555528
-0.53335953 9.3516798 13.662179
-0.22818367 9.3436165 13.632317
0.088390954 10.860132 15.840711
0.4750751 11.667827 17.032362
0.68379354 9.3184223 13.62805
0.98674202 9.2912283 13.62805
1.288646 9.2541866 13.62805
1.5901781 9.2131033 13.636582
1.88449 9.1335449 13.602454
2.1810126 9.0683146 13.603876
2.4825296 9.0197773 13.645115
2.775672 8.9369869 13.649381
3.8509626 11.108892 17.148966
3.9402757 10.273098 16.048325
4.2918811 10.185222 16.120848
4.9341927 10.720295 17.212957
5.4654851 10.923695 17.815893
5.6087112 10.353393 17.174562
6.1941738 10.595438 17.901215
6.5264239 10.373352 17.875618
6.8868108 10.194201 17.943874
4.0330606 5.570076 10.030345
4.1674395 5.3780508 9.9236937
4.3346872 5.2327957 9.9108953
4.4988394 5.0845494 9.9023638
4.6599474 4.9332933 9.898098
4.8000574 4.7611489 9.861125
4.9496307 4.5997314 9.8554373
5.0989337 4.4381061 9.8597031
5.2520285 4.2790232 9.8810329
5.3489766 4.0756688 9.8085108
5.4819813 3.9016635 9.8141985
5.579268 3.7033672 9.767272
5.7366667 3.5443988 9.8355284
5.8895864 3.3790834 9.9037857
5.9172421 3.1435087 9.7729597
6.0514441 2.9664042 9.8298407
6.1234584 2.7582505 9.7957125
6.2072897 2.5563588 9.7914457
6.2936006 2.3553517 9.8014002
6.3373713 2.139271 9.7558956
6.4493828 1.9456562 9.8255749
6.5102372 1.7349513 9.8269968
6.5689588 1.5234479 9.8355284
6.6093273 1.3076882 9.8269968
6.6252999 1.0880723 9.7928686
6.6630063 0.87260437 9.8014002
6.7548289 0.66182339 9.8995199
6.7027445 0.43703836 9.7971344
6.763114 0.22025345 9.8696575
6.7247772 0 9.8085108
6.4253426 0 9.9436455
6.4387722 0.20969065 9.9697113
6.4500117 0.42055944 10.003018
6.3854094 0.62562847 9.9291639
6.4126921 0.83982259 10.00881
6.375494 1.0470468 9.9986734
6.2912202 1.2447492 9.9248199
6.2473707 1.4488664 9.9248199
6.2023253 1.6528939 9.9335079
6.2052603 1.8720092 10.030532
6.0763183 2.0511484 9.9248199
6.0063338 2.2478435 9.9248199
5.9351764 2.4442942 9.9335079
5.8908634 2.6534803 9.9986734
5.7585216 2.8228142 9.9248199
5.6660681 3.0100732 9.9291639
5.5699592 3.1957006 9.9378529
5.4606004 3.3738315 9.9335079
5.3486695 3.550302 9.9349566
5.2310367 3.7230604 9.9364042
5.1688576 3.938427 10.056599
4.9806142 4.0578918 9.9421968
4.8649497 4.234446 9.9812965
4.7265987 4.3924651 9.9856405
4.5871 4.5499172 9.9986734
4.4346442 4.6947742 9.9943295
4.2962227 4.8555541 10.033428
4.1699252 5.033896 10.115971
3.9901085 5.1492066 10.081217
3.8500233 5.3172827 10.159414
3.6811936 5.4490862 10.176792
6.2784243 9.9791718 18.245703
5.9351673 10.152395 18.199364
5.5770516 10.29495 18.119717
5.2448616 10.482741 18.13999
4.9028287 10.652156 18.14723
4.5793061 10.86732 18.250048
4.2385674 11.050806 18.31666
3.6967149 10.663934 17.466616
3.5577517 11.455088 18.562841
2.8095474 10.207927 16.384872
2.4593825 10.225733 16.276262
1.8151369 8.7974119 13.901351
1.5278232 8.8518333 13.901351
1.2387609 8.8959455 13.899902
1.1086354 10.438972 16.245853
0.57411849 7.8238215 12.14044
0.31880945 7.8299484 12.127407
0.063824579 7.8417907 12.136095
-0.19145633 7.8397131 12.136095
-0.51143175 8.9672079 13.899902
-0.80036348 8.9159851 13.853563
-1.0875301 8.8638477 13.820256
-1.2078515 7.7484741 12.136095
-1.4588988 7.7022953 12.131751
-1.9597231 8.7740078 13.912936
-1.9567221 7.5901456 12.130303
-3.02424 10.327877 16.654222
-2.4391251 7.4245238 12.0941
-2.6788561 7.3394394 12.091204
-4.1657004 10.353577 17.27112
-3.1507189 7.1495881 12.091204
-3.3683999 7.015408 12.043416
-4.2070494 8.0772066 14.09395
-3.8209312 6.7870865 12.053553
-4.0509863 6.6775212 12.08686
-5.005794 7.6762943 14.182285
-4.4500551 6.3614578 12.014454
-4.6945934 6.2664108 12.11727
-4.9177265 6.137301 12.17085
-5.0491605 5.897213 12.014454
-5.2516961 5.7442427 12.044864
-6.3253541 6.4817133 14.015752
-5.6021657 5.3787055 12.018798
-5.7700973 5.1897526 12.010109
-5.8286047 4.908772 11.792892
-5.980885 4.7129769 11.784204
-6.2320814 4.5901656 11.978251
-6.2270527 4.2809792 11.69442
-6.3575811 4.0724897 11.684282
-6.4835558 3.8614781 11.678491
-6.7999392 3.7556131 12.021694
-6.8735757 3.509311 11.943496
-5.1330309 2.4133799 8.7779102
-5.1813674 2.2331715 8.7315702
-5.2225704 2.0520442 8.6837826
-5.2892413 1.8819053 8.6881275
-5.3156052 1.6984924 8.6359949
-5.3626728 1.5230377 8.627306
-5.428473 1.3524282 8.6577168
-5.4440022 1.1695126 8.6171694
-5.4524822 0.98685998 8.5751743
-5.5261488 0.81541753 8.6446838
-5.5469732 0.63479239 8.6403389
-5.5171318 0.45002455 8.5664854
-5.5288563 0.27020571 8.5664854
-5.5319152 0.090054825 8.5621405
-5.3094444 0.086433195 8.7321663
-5.3038177 0.25920764 8.7321663
-5.2988205 0.43221718 8.7424784
-5.2783842 0.60405523 8.7365856
-5.3232794 0.78548288 8.8485441
-5.2384748 0.94812626 8.7542639
-5.2442513 1.126601 8.8205547
-5.1865473 1.2921557 8.7896185
-5.1443253 1.4610254 8.7940378
-5.1401234 1.6424208 8.8735876
-5.0721235 1.8046552 8.8529634
-5.0098615 1.968467 8.851491
-4.967814 2.14113 8.8956842
-4.900353 2.3039825 8.9045238
-6.4240742 3.2798173 11.861109
-6.4880013 3.5833294 12.188146
-6.2047582 3.6954317 11.87584
-6.1739683 3.9548724 12.057036
-5.9762669 4.1085687 11.925927
-5.9821854 4.4061074 12.217608
-5.7392015 4.5225286 12.015789
-5.641715 4.7513757 12.12922
-5.5213699 4.9660416 12.211716
-5.37748 5.1629825 12.258856
-5.164032 5.2916842 12.158683
-5.0083966 5.4781246 12.205823
-4.859477 5.6756701 12.286846
-4.6934476 5.8574018 12.342825
-4.4755955 5.9740891 12.275061
-4.2546358 6.0821018 12.205823
-4.7605176 7.3001671 14.33156
-3.8717284 6.3820381 12.275061
-3.6412892 6.4679899 12.205823
-4.0566092 7.7883739 14.440572
-3.2216539 6.7097788 12.239705
-3.0029905 6.8143659 12.245598
-2.7792602 6.90767 12.244124
-2.567996 7.0357089 12.316308
-2.3247645 7.0764184 12.248545
-2.0931978 7.1483383 12.248545
-1.8652278 7.2352381 12.286846
-1.6287346 7.2921166 12.286846
-1.3895159 7.3359861 12.278007
-1.1472367 7.3596244 12.248545
-0.90696692 7.3921776 12.247071
-0.66947812 7.4579329 12.313362
-0.42427847 7.4391031 12.252964
-0.18191388 7.4489708 12.252964
0.060599733 7.4455705 12.244124
0.30313659 7.4450231 12.252964
0.54694748 7.4535475 12.289792
0.79144436 7.4522839 12.323674
1.0307521 7.4021664 12.289792
1.2758669 7.3920603 12.33546
1.5112736 7.3246799 12.298631
1.7541254 7.2933822 12.33546
1.9846495 7.2108293 12.298631
2.2113988 7.1201653 12.260329
2.4496152 7.0664186 12.298631
2.6699851 6.9611931 12.260329
2.9041991 6.8920617 12.298631
4.5394349 9.8626232 17.853828
5.0548673 10.103006 18.577139
5.3405008 9.8582888 18.437191
3.1633034 5.4109855 10.30695
3.323441 5.2824068 10.262755
3.4800801 5.1513882 10.222981
3.643285 5.0317554 10.215615
3.8166597 4.9253721 10.246552
3.9440966 4.7612782 10.167002
4.080956 4.6122613 10.127227
4.2307668 4.4789376 10.131646
4.3692245 4.3338075 10.119862
4.5053477 4.1868553 10.113969
4.6372142 4.0362253 10.10955
4.8043327 3.9142685 10.190572
4.887866 3.7243247 10.10513
5.004312 3.5616946 10.100711
5.1534181 3.4206994 10.171421
5.228497 3.230427 10.106604
5.3433089 3.0656626 10.130174
5.3999157 2.868681 10.055043
5.5491495 2.7201805 10.162582
5.5783906 2.5127301 10.060936
5.656395 2.329483 10.059463
5.7451625 2.1501014 10.087453
5.8528452 1.9757117 10.158163
5.8523006 1.765528 10.052097
5.9109955 1.5752558 10.059463
5.959137 1.3820204 10.059463
6.0185394 1.1907979 10.088925
6.0762105 0.9978953 10.125754
6.1072483 0.79982084 10.1287
6.1139979 0.59903616 10.102183
6.1463475 0.40075967 10.1287
6.1570306 0.20051524 10.130174
6.1396909 0 10.096292
5.8351088 0 10.21382
5.8149204 0.18937376 10.183879
5.8466406 0.3812179 10.255737
5.7834678 0.56665158 10.171903
5.8230166 0.76259714 10.279691
5.7537546 0.94493854 10.206334
5.765255 1.1406842 10.287176
5.6634178 1.3134384 10.176394
5.6730347 1.5118402 10.276696
5.5602269 1.6774149 10.165915
5.5026813 1.8575093 10.165915
5.502584 2.0593174 10.284182
5.3749084 2.2135577 10.174896
5.3351007 2.4031427 10.242264
5.2548203 2.5759013 10.243761
5.1493087 2.7355473 10.206334
5.1176286 2.9361813 10.327597
4.9494963 3.0580463 10.183879
4.896503 3.2501662 10.287176
4.7546706 3.3840184 10.215317
4.6433635 3.5380247 10.218311
4.5801115 3.7315874 10.34107
4.4381595 3.8629689 10.299152
4.3113232 4.0065465 10.302146
4.1658759 4.1321073 10.270707
4.0767403 4.315876 10.39197
3.9182312 4.4283509 10.350052
3.7736506 4.5555172 10.354544
3.6034636 4.6502447 10.297656
3.4637334 4.7837758 10.338076
3.3042729 4.891149 10.332088
3.1446834 4.998282 10.336578
2.9958642 5.1245723 10.390472
